-300 -300 -300 -300 -209 -186 -230 -256 -286 -300 -300 -300 -300 -300 -300 -300 -300 -300 -300 -300 -300 -300 -300 -300 -300 -300 -300 -300 -300 -286 -295 -255 -217 -248 -300 -300 -300 -246 -156 -123 -189 -233 -195 -180 -186 -141 -124 -174 -257 -295 -300 -300 -300 -300 -300 -300 -300 -300 -300 -300 -290 -226 -199 -213 -201 -165 -183 -274 -300 -300 -300 -300 -300 -300 -300 -300 -300 -300 -300 -300 -300 -300 -300 -300 -300 -300 -300 -300 -300 -300 -300 -300 -300 -300 -300 -300 -300 -300 -300 -300 -300 -300 -300 -300 -300 -300 -300 -258 -117 22 53 103 186 252 358 436 495 573 712 759 833 879 913 904 906 917 930 867 806 694 606 479 340 197 143 101 52 0 -61 -72 -122 -137 -103 -75 -109 -148 -172 -133 -127 -194 -246 -300 -300 -300 -300 -300 -300 -300 -300 -300 -300 -300 -300 -300 -300 -300 -300 -300 -300 -300 -300 -300 -300 -300 -300 -300 -300 -300 -300 -300 -300 -300 -300 -300 -300 -300 -300 -300 -300 -300 -300 -300 -300 -300 -300 -300 -300 -300 -300 -300 -300 -300 -300 -300 -300 -300 -300 -300 -289 -280 -238 -230 -136 -106 -45 60 165 288 292 329 329 364 416 434 471 528 544 552 517 513 510 617 669 675 642 589 608 665 699 666 631 543 446 389 329 283 284 198 125 48 -30 -69 -172 -283 -300 -300
-300 -300 -300 -251 -207 -216 -236 -282 -300 -300 -300 -296 -300 -300 -300 -300 -300 -300 -300 -300 -300 -300 -300 -300 -300 -300 -300 -300 -300 -300 -300 -300 -300 -300 -300 -300 -300 -300 -258 -180 -170 -212 -218 -175 -173 -140 -135 -151 -216 -283 -300 -300 -300 -300 -300 -300 -300 -300 -300 -300 -300 -295 -300 -300 -300 -247 -247 -272 -300 -300 -300 -300 -300 -300 -300 -300 -300 -300 -300 -300 -300 -300 -300 -300 -300 -300 -279 -300 -300 -300 -300 -300 -300 -300 -300 -300 -300 -300 -300 -300 -300 -300 -300 -300 -300 -300 -279 -195 -66 -23 1 87 205 257 365 488 581 661 777 823 896 932 950 941 918 919 922 884 816 732 607 441 323 150 42 -9 -53 -64 -121 -144 -171 -162 -212 -219 -246 -252 -279 -208 -158 -220 -300 -300 -300 -300 -300 -300 -300 -300 -300 -300 -300 -300 -300 -300 -300 -300 -300 -300 -300 -300 -300 -300 -300 -300 -300 -300 -300 -300 -300 -300 -300 -300 -300 -300 -300 -300 -300 -300 -300 -300 -300 -300 -300 -300 -300 -300 -300 -300 -300 -300 -300 -300 -300 -300 -300 -300 -300 -300 -300 -300 -295 -205 -86 -65 -8 86 219 328 356 386 401 435 502 540 519 548 559 533 526 537 512 551 611 673 640 568 558 633 664 714 689 604 552 488 401 324 271 152 38 -50 -95 -151 -298 -300 -300 -300
-281 -283 -276 -243 -241 -242 -283 -300 -300 -300 -300 -300 -300 -300 -300 -300 -300 -300 -300 -300 -300 -300 -300 -300 -300 -300 -300 -300 -300 -300 -300 -300 -300 -300 -300 -300 -300 -300 -300 -256 -206 -222 -201 -136 -144 -100 -89 -134 -194 -300 -300 -300 -300 -300 -300 -300 -300 -300 -300 -300 -300 -300 -300 -300 -300 -300 -300 -293 -266 -300 -300 -300 -300 -284 -300 -300 -300 -300 -300 -300 -300 -300 -300 -300 -272 -191 -204 -290 -300 -300 -300 -300 -300 -300 -300 -300 -300 -300 -300 -300 -300 -300 -300 -300 -300 -300 -239 -150 -98 -76 -26 86 203 298 389 496 661 713 742 830 906 919 963 907 889 862 853 864 809 751 557 402 258 98 1 -61 -96 -99 -147 -198 -250 -231 -269 -300 -300 -300 -300 -298 -275 -277 -300 -300 -300 -300 -300 -300 -300 -300 -300 -300 -300 -300 -300 -300 -300 -300 -300 -300 -300 -300 -300 -300 -300 -300 -300 -300 -300 -300 -300 -300 -300 -300 -300 -300 -300 -300 -300 -300 -300 -300 -300 -300 -300 -300 -300 -300 -300 -300 -300 -300 -300 -300 -300 -300 -300 -300 -300 -300 -300 -300 -300 -210 -71 -9 20 109 242 392 447 464 529 567 604 584 606 576 558 490 491 482 520 541 560 655 640 604 550 586 623 690 669 631 591 485 454 381 247 131 2 -144 -198 -273 -300 -300 -300 -300
-177 -230 -270 -274 -273 -272 -300 -298 -300 -300 -300 -300 -300 -300 -300 -300 -300 -300 -300 -300 -300 -300 -300 -300 -300 -300 -300 -300 -300 -300 -300 -300 -300 -300 -300 -300 -300 -300 -300 -280 -236 -186 -153 -143 -113 -83 -95 -118 -159 -265 -300 -300 -300 -300 -300 -300 -300 -300 -300 -300 -300 -300 -300 -300 -300 -300 -300 -300 -300 -300 -300 -258 -254 -300 -300 -284 -300 -300 -300 -300 -300 -300 -300 -300 -224 -178 -210 -257 -300 -300 -300 -300 -300 -300 -300 -300 -300 -300 -300 -300 -300 -300 -300 -300 -300 -300 -264 -219 -193 -114 -37 73 166 229 346 475 651 740 793 906 939 891 871 877 870 817 752 744 724 695 550 361 222 102 -38 -110 -172 -224 -280 -300 -300 -300 -300 -300 -300 -300 -300 -300 -300 -300 -300 -300 -300 -300 -300 -300 -300 -300 -300 -300 -300 -300 -300 -300 -300 -300 -300 -300 -300 -300 -300 -300 -300 -300 -300 -300 -300 -300 -300 -300 -300 -300 -300 -300 -300 -300 -300 -300 -300 -300 -300 -300 -300 -300 -300 -300 -300 -300 -300 -300 -300 -300 -300 -300 -300 -300 -300 -300 -300 -300 -286 -153 -44 -11 55 195 341 453 552 615 656 662 636 603 630 571 505 445 440 459 528 584 582 632 654 629 544 565 607 623 620 611 523 466 444 384 246 113 -6 -145 -237 -300 -300 -300 -300 -300
-167 -243 -293 -300 -289 -272 -289 -264 -295 -300 -300 -300 -300 -300 -300 -300 -300 -300 -300 -300 -300 -300 -300 -300 -300 -300 -300 -300 -300 -300 -300 -300 -300 -300 -300 -300 -300 -300 -300 -265 -234 -144 -119 -134 -39 -27 -49 -88 -116 -199 -298 -300 -300 -300 -300 -300 -300 -300 -300 -300 -300 -300 -300 -300 -300 -300 -300 -300 -300 -300 -278 -238 -248 -295 -300 -297 -300 -300 -300 -300 -285 -285 -284 -226 -179 -173 -182 -183 -248 -300 -300 -300 -300 -300 -300 -300 -300 -300 -300 -300 -300 -300 -275 -300 -300 -272 -245 -238 -192 -112 -16 100 172 188 296 432 588 695 787 905 952 917 880 807 760 682 648 628 581 543 445 317 159 31 -70 -135 -220 -279 -300 -300 -300 -300 -300 -300 -300 -300 -300 -300 -300 -300 -300 -300 -300 -300 -300 -300 -300 -300 -300 -300 -300 -300 -300 -300 -300 -300 -300 -300 -300 -300 -300 -300 -300 -300 -300 -300 -300 -300 -300 -300 -300 -300 -300 -300 -300 -300 -300 -300 -300 -300 -300 -300 -300 -300 -300 -300 -300 -300 -300 -300 -300 -300 -300 -300 -300 -300 -300 -300 -300 -285 -174 -59 55 65 172 322 471 541 635 696 752 758 673 617 617 548 481 449 464 506 576 596 622 609 588 579 499 505 571 610 606 610 549 516 435 401 249 128 -15 -112 -221 -300 -300 -300 -300 -300
-207 -296 -300 -300 -300 -300 -266 -247 -284 -300 -300 -300 -300 -300 -300 -300 -300 -300 -300 -300 -300 -300 -300 -300 -300 -300 -300 -300 -300 -300 -300 -300 -300 -300 -300 -300 -300 -300 -281 -236 -193 -114 -81 -86 -50 -15 -71 -94 -108 -162 -266 -300 -300 -300 -300 -300 -300 -300 -300 -300 -300 -300 -300 -300 -300 -300 -300 -300 -300 -300 -300 -274 -271 -294 -300 -300 -300 -300 -294 -278 -196 -187 -147 -171 -182 -211 -162 -145 -170 -206 -248 -292 -300 -300 -300 -300 -300 -300 -300 -300 -275 -262 -192 -207 -224 -231 -224 -220 -197 -83 7 103 172 224 307 421 530 667 785 921 952 952 880 771 680 604 577 543 515 423 375 267 110 12 -56 -150 -217 -289 -300 -300 -300 -300 -300 -300 -300 -300 -300 -300 -300 -300 -300 -300 -300 -300 -300 -300 -247 -236 -271 -300 -300 -300 -300 -300 -300 -300 -300 -300 -300 -300 -300 -300 -300 -300 -300 -300 -300 -300 -300 -300 -300 -300 -300 -300 -300 -300 -300 -300 -300 -300 -300 -300 -300 -300 -300 -300 -300 -300 -300 -300 -300 -300 -300 -300 -300 -300 -300 -270 -217 -163 -105 21 126 178 260 424 557 595 639 700 761 751 676 622 627 567 503 471 470 467 537 565 612 578 524 515 452 460 522 604 602 617 560 474 418 362 248 95 2 -81 -194 -300 -300 -300 -300 -300
-248 -300 -300 -300 -300 -300 -300 -264 -285 -300 -300 -300 -300 -300 -300 -300 -300 -300 -300 -300 -300 -300 -300 -300 -300 -300 -300 -300 -300 -300 -300 -300 -300 -300 -300 -300 -300 -300 -258 -209 -161 -104 -45 -34 -29 -69 -82 -58 -134 -217 -270 -287 -300 -300 -300 -300 -300 -300 -282 -300 -300 -300 -300 -300 -300 -300 -300 -300 -300 -300 -300 -274 -251 -275 -300 -300 -300 -286 -298 -300 -237 -127 -64 -118 -122 -155 -140 -120 -126 -147 -182 -238 -300 -300 -300 -300 -300 -300 -300 -300 -300 -270 -151 -126 -142 -190 -172 -175 -197 -120 0 137 186 266 377 482 566 698 774 839 847 871 799 747 711 639 589 567 525 429 360 250 144 104 41 -68 -158 -187 -211 -289 -300 -300 -300 -300 -300 -300 -300 -300 -259 -234 -300 -300 -300 -297 -280 -260 -262 -221 -220 -300 -300 -300 -300 -300 -300 -300 -300 -300 -300 -300 -300 -300 -300 -300 -300 -300 -300 -300 -300 -300 -300 -300 -300 -300 -300 -300 -300 -300 -300 -300 -300 -300 -300 -300 -300 -300 -300 -300 -300 -300 -300 -281 -275 -211 -232 -208 -187 -167 -159 -102 -47 55 149 250 360 448 569 675 696 737 770 771 730 654 639 584 512 456 414 387 450 515 595 561 513 503 454 475 520 553 564 553 440 396 384 309 227 95 -10 -92 -213 -300 -300 -300 -300 -300
-265 -300 -300 -300 -300 -300 -300 -300 -300 -300 -300 -300 -300 -300 -300 -300 -300 -300 -300 -300 -300 -300 -300 -300 -300 -300 -300 -300 -300 -300 -300 -300 -300 -300 -300 -300 -300 -251 -186 -156 -86 -46 17 19 0 -46 -47 -64 -103 -230 -265 -281 -300 -300 -300 -300 -300 -263 -233 -283 -300 -300 -300 -300 -300 -300 -300 -300 -300 -300 -288 -247 -224 -239 -212 -265 -297 -220 -238 -295 -283 -205 -97 -82 -96 -83 -89 -88 -75 -98 -175 -215 -300 -300 -300 -300 -300 -300 -298 -267 -265 -259 -178 -130 -123 -155 -163 -116 -148 -70 45 136 224 305 401 469 507 640 740 777 805 817 778 700 702 623 532 534 483 420 352 283 182 119 55 -58 -118 -143 -191 -187 -227 -203 -250 -287 -299 -300 -300 -262 -177 -217 -265 -300 -300 -300 -260 -263 -241 -224 -209 -274 -300 -300 -300 -300 -300 -300 -300 -300 -300 -300 -300 -300 -300 -300 -300 -300 -300 -300 -300 -300 -300 -300 -300 -300 -300 -300 -300 -300 -300 -300 -300 -300 -300 -300 -300 -300 -300 -300 -300 -300 -265 -206 -140 -129 -138 -120 -145 -93 -62 -2 52 121 220 334 402 462 594 692 710 755 806 790 785 740 663 623 560 497 412 330 383 454 566 557 533 498 469 481 516 564 544 482 381 306 283 225 177 41 -42 -124 -265 -300 -300 -300 -300 -300
-280 -300 -300 -300 -300 -300 -300 -300 -300 -300 -300 -300 -300 -300 -300 -300 -300 -300 -300 -300 -300 -300 -300 -300 -300 -300 -300 -300 -300 -300 -300 -300 -300 -300 -300 -300 -257 -134 -96 -105 -26 13 59 57 86 41 -19 -69 -130 -192 -221 -282 -300 -300 -300 -300 -300 -274 -171 -203 -274 -300 -300 -300 -300 -300 -300 -300 -300 -285 -233 -178 -174 -192 -183 -233 -232 -163 -181 -271 -300 -251 -138 -59 -55 -73 -60 -37 -3 -88 -189 -256 -300 -300 -300 -300 -300 -300 -255 -221 -203 -204 -178 -107 -86 -119 -102 -73 -72 1 89 183 253 343 401 419 506 604 667 689 774 809 758 669 653 617 508 477 415 363 355 306 238 118 26 -60 -97 -148 -184 -120 -152 -156 -142 -182 -214 -228 -219 -165 -112 -136 -199 -278 -300 -300 -300 -300 -271 -221 -198 -250 -294 -300 -300 -300 -300 -300 -300 -300 -300 -300 -300 -300 -300 -300 -300 -300 -300 -300 -300 -300 -300 -300 -300 -300 -300 -300 -300 -300 -300 -300 -300 -300 -300 -300 -300 -300 -300 -300 -300 -272 -176 -104 -72 -52 -16 -61 -68 -44 41 122 180 188 287 396 451 510 585 702 766 778 853 869 833 801 748 668 614 531 415 330 380 453 522 546 531 485 479 517 503 520 506 406 317 226 196 148 89 -18 -104 -167 -287 -300 -300 -300 -300 -300
-300 -300 -300 -300 -300 -300 -300 -300 -300 -300 -300 -300 -300 -300 -300 -300 -300 -300 -300 -300 -300 -300 -300 -300 -300 -300 -300 -300 -300 -300 -300 -300 -300 -300 -300 -274 -204 -118 -70 -10 47 84 164 135 161 153 80 2 -95 -138 -163 -191 -233 -300 -300 -280 -250 -290 -249 -231 -270 -300 -300 -300 -300 -300 -300 -300 -300 -300 -260 -183 -138 -168 -191 -196 -201 -170 -205 -231 -242 -222 -121 -47 -38 -72 -54 -37 8 -79 -217 -283 -298 -300 -300 -300 -300 -300 -288 -266 -212 -149 -119 -81 -23 -30 -6 21 35 57 95 171 233 317 414 461 544 579 645 701 772 791 721 632 581 541 492 441 382 344 345 295 240 112 31 -54 -124 -109 -137 -150 -153 -148 -146 -124 -153 -176 -169 -146 -109 -121 -170 -222 -300 -300 -287 -288 -274 -248 -246 -274 -290 -300 -300 -300 -300 -300 -300 -300 -300 -300 -300 -300 -300 -300 -300 -300 -300 -300 -300 -300 -300 -300 -300 -300 -300 -300 -300 -300 -300 -300 -300 -300 -300 -300 -300 -300 -272 -227 -174 -113 -66 -24 5 32 64 15 26 55 165 210 274 289 322 419 503 560 606 723 818 826 806 837 838 798 791 752 661 538 418 358 397 389 401 433 482 457 501 491 416 448 417 292 209 132 82 39 3 -27 -99 -175 -300 -300 -300 -300 -300 -300
-300 -300 -300 -300 -300 -300 -300 -300 -300 -300 -300 -300 -300 -300 -300 -300 -300 -300 -300 -300 -300 -300 -300 -300 -300 -300 -300 -300 -300 -300 -300 -300 -300 -300 -300 -283 -198 -130 -42 -10 77 131 180 175 181 182 149 29 -85 -142 -127 -107 -137 -198 -243 -196 -210 -270 -282 -258 -280 -300 -300 -300 -300 -300 -300 -300 -300 -260 -203 -153 -110 -125 -220 -218 -210 -227 -241 -239 -239 -186 -79 -37 -49 -74 -71 -22 0 -60 -183 -203 -249 -300 -300 -300 -296 -235 -226 -198 -138 -103 -55 -60 -58 -50 -33 13 34 43 68 153 214 318 408 493 526 554 665 706 761 739 623 510 466 480 481 384 351 296 251 167 121 64 -14 -37 -130 -138 -149 -136 -177 -164 -162 -146 -225 -227 -204 -145 -102 -135 -148 -202 -221 -261 -240 -236 -234 -219 -242 -252 -278 -300 -300 -300 -300 -300 -300 -300 -300 -300 -300 -300 -300 -300 -300 -300 -300 -300 -300 -300 -300 -300 -300 -300 -300 -300 -300 -300 -300 -300 -300 -300 -300 -300 -300 -300 -258 -193 -144 -63 -37 5 64 115 120 107 128 153 223 264 311 325 378 482 558 595 667 767 797 838 840 834 848 814 794 759 720 619 533 480 431 404 366 408 467 450 497 471 349 330 288 176 103 115 50 30 -29 -29 -114 -180 -288 -300 -300 -300 -300 -300
-300 -300 -300 -300 -300 -300 -300 -300 -300 -300 -300 -300 -300 -300 -300 -300 -300 -300 -300 -300 -300 -300 -300 -300 -300 -300 -300 -300 -300 -300 -300 -300 -300 -300 -300 -292 -206 -167 -98 -24 98 174 154 142 144 167 143 48 -38 -98 -83 -46 -26 -32 -98 -76 -132 -215 -300 -294 -300 -277 -300 -300 -300 -300 -300 -300 -300 -263 -163 -130 -103 -100 -200 -244 -246 -289 -265 -251 -233 -165 -94 -54 -36 -29 -7 24 24 13 -67 -99 -155 -269 -300 -279 -181 -132 -95 -58 -25 -33 -35 -54 -53 -69 -82 -41 -42 -43 -15 91 160 269 350 471 492 515 636 675 722 641 486 402 373 407 434 370 297 218 139 50 10 -36 -39 -85 -168 -182 -180 -143 -148 -169 -207 -248 -276 -282 -228 -135 -117 -117 -150 -173 -162 -158 -152 -161 -128 -121 -169 -159 -193 -231 -287 -300 -300 -300 -300 -300 -300 -300 -300 -300 -300 -300 -300 -300 -300 -300 -300 -300 -300 -300 -300 -300 -300 -300 -300 -300 -300 -300 -300 -300 -300 -300 -300 -300 -286 -231 -170 -77 -49 8 99 144 160 144 177 218 249 293 330 380 471 571 582 611 684 759 801 870 883 887 860 821 748 686 708 702 642 574 501 443 404 424 488 503 475 414 269 180 158 75 0 45 35 23 -31 -29 -99 -217 -300 -300 -300 -300 -300 -300
-237 -270 -245 -262 -300 -300 -300 -300 -300 -300 -300 -300 -300 -300 -300 -300 -300 -300 -300 -300 -300 -300 -300 -300 -300 -300 -300 -300 -300 -300 -300 -300 -300 -300 -300 -293 -260 -186 -89 22 86 122 130 145 146 130 118 79 -5 -51 -35 4 58 54 12 20 -33 -106 -238 -282 -299 -279 -300 -300 -300 -300 -300 -300 -300 -276 -216 -149 -103 -94 -157 -204 -268 -300 -258 -172 -129 -127 -114 -91 -43 13 52 108 99 75 -2 -56 -99 -183 -174 -151 -26 20 6 15 44 31 2 -76 -69 -94 -96 -62 -39 -28 -29 43 126 248 356 454 443 511 616 620 561 491 388 302 271 313 337 305 254 126 35 -43 -53 -75 -82 -123 -176 -242 -266 -204 -170 -225 -296 -300 -283 -246 -202 -120 -109 -100 -131 -152 -174 -164 -83 -49 -51 -44 -59 -77 -137 -180 -218 -300 -300 -300 -300 -300 -300 -300 -300 -300 -300 -300 -300 -300 -300 -300 -300 -300 -300 -300 -300 -300 -300 -300 -300 -300 -300 -300 -300 -300 -300 -300 -300 -300 -261 -181 -153 -88 -42 -8 43 56 113 119 119 153 183 321 386 467 491 568 572 558 620 707 747 837 868 862 811 750 685 672 668 715 736 660 568 479 480 518 521 517 429 337 182 82 -17 -96 -109 -59 -32 -5 -70 -81 -130 -244 -300 -300 -300 -300 -300 -300
-205 -202 -254 -278 -300 -300 -300 -300 -300 -300 -300 -300 -300 -300 -300 -300 -300 -300 -300 -300 -300 -300 -300 -300 -300 -300 -300 -300 -300 -300 -300 -300 -300 -300 -300 -283 -271 -184 -79 39 34 44 6 67 52 68 40 49 32 15 26 17 85 105 132 58 -2 -51 -192 -265 -237 -273 -300 -300 -300 -300 -300 -300 -300 -300 -267 -141 -96 -80 -142 -211 -300 -300 -263 -146 -109 -114 -92 -81 9 107 127 128 160 131 38 -8 -22 -35 -51 -17 33 87 64 23 47 65 2 -69 -62 -40 -67 -45 -49 -29 -65 18 102 223 332 393 414 421 478 490 464 386 347 258 186 214 226 249 166 59 -10 -23 -81 -133 -174 -148 -175 -232 -257 -214 -157 -243 -300 -294 -225 -200 -133 -92 -68 -96 -80 -78 -129 -109 0 48 22 24 5 3 -25 -93 -155 -280 -300 -300 -300 -300 -300 -300 -300 -300 -300 -300 -300 -300 -300 -300 -300 -300 -300 -300 -300 -300 -300 -300 -300 -300 -300 -300 -300 -300 -300 -300 -300 -300 -225 -166 -140 -95 -70 -27 17 28 53 92 52 75 117 255 400 441 450 516 511 515 569 606 677 760 820 784 724 702 697 692 692 722 747 699 649 585 574 563 514 477 382 301 124 0 -83 -146 -157 -143 -72 -52 -77 -120 -193 -284 -300 -300 -300 -300 -300 -300
-194 -205 -248 -288 -300 -300 -300 -300 -300 -300 -300 -300 -300 -300 -300 -300 -300 -300 -300 -300 -300 -300 -300 -300 -300 -300 -300 -300 -300 -300 -300 -300 -300 -300 -300 -300 -300 -223 -103 -4 -34 -45 -104 -101 -110 -27 3 -17 -12 21 97 85 101 120 149 113 54 -34 -183 -242 -238 -276 -300 -300 -300 -300 -300 -300 -300 -300 -235 -124 -91 -79 -136 -253 -300 -300 -264 -180 -111 -89 -70 -62 14 132 175 172 198 157 103 59 95 99 85 105 106 137 99 23 24 22 -57 -85 -94 -52 -32 -46 -61 -61 -97 -4 106 205 262 340 354 358 374 351 328 317 284 224 143 155 171 165 70 42 24 -10 -61 -112 -217 -201 -155 -158 -193 -169 -176 -254 -243 -211 -176 -166 -121 -74 -26 -82 -112 -85 -112 -54 63 103 55 55 99 83 30 0 -98 -241 -300 -300 -300 -300 -300 -300 -300 -300 -300 -300 -300 -300 -300 -300 -300 -300 -300 -300 -300 -300 -300 -300 -300 -300 -300 -300 -300 -300 -300 -300 -300 -300 -230 -156 -146 -136 -56 -35 -8 -15 -15 9 -2 2 40 156 321 388 384 444 452 471 530 584 651 704 731 716 697 682 738 765 754 753 726 736 749 714 677 608 514 444 380 264 91 -21 -70 -118 -173 -181 -118 -74 -87 -160 -246 -300 -300 -300 -300 -300 -300 -300
-150 -180 -224 -300 -300 -300 -300 -300 -300 -300 -300 -300 -300 -300 -300 -300 -300 -300 -300 -300 -300 -300 -300 -300 -300 -300 -300 -300 -300 -300 -300 -300 -300 -300 -300 -300 -300 -300 -204 -148 -134 -131 -184 -226 -231 -202 -84 -86 -28 25 71 111 133 198 195 189 105 30 -69 -200 -265 -300 -300 -300 -300 -300 -300 -300 -300 -300 -252 -176 -151 -190 -204 -289 -300 -300 -293 -196 -81 -74 -59 -63 38 139 167 142 140 142 139 98 125 141 163 182 169 172 131 57 56 40 -47 -43 -33 -12 -20 -35 -39 -56 -84 -39 27 123 240 283 260 233 253 239 284 328 284 208 159 157 139 72 21 29 8 22 -59 -135 -187 -199 -153 -133 -183 -166 -167 -222 -248 -178 -176 -195 -167 -114 -66 -111 -79 -55 -87 -9 91 114 134 111 169 158 55 -24 -87 -205 -300 -300 -300 -300 -300 -300 -300 -300 -300 -300 -300 -300 -300 -300 -300 -300 -300 -300 -300 -300 -300 -300 -300 -300 -300 -300 -300 -300 -300 -300 -300 -284 -211 -162 -152 -196 -141 -69 -28 -39 -112 -115 -91 -58 23 123 289 346 328 375 405 423 477 507 622 651 672 679 681 710 773 806 830 824 799 790 789 800 770 695 568 447 372 315 180 39 -95 -182 -215 -223 -180 -142 -130 -191 -280 -300 -300 -300 -300 -300 -300 -300
-175 -194 -220 -274 -300 -300 -300 -300 -300 -300 -300 -300 -300 -300 -300 -300 -300 -300 -300 -300 -300 -300 -300 -300 -300 -300 -300 -300 -300 -300 -300 -300 -300 -300 -300 -300 -300 -300 -300 -276 -245 -276 -266 -273 -300 -283 -194 -143 -46 15 80 92 178 225 204 218 148 61 2 -110 -211 -300 -300 -300 -300 -300 -300 -300 -300 -300 -211 -213 -208 -259 -256 -297 -300 -300 -300 -223 -125 -118 -126 -88 -10 106 163 143 128 145 170 205 205 203 206 213 199 164 107 129 84 33 -2 -11 27 -37 -53 -11 -24 -75 -83 -62 0 52 174 254 205 194 219 233 261 272 206 163 140 161 94 17 -2 9 4 -44 -84 -148 -181 -155 -130 -138 -180 -126 -108 -204 -254 -218 -243 -245 -190 -100 -70 -41 -26 -16 -15 30 104 149 172 243 211 138 23 -84 -141 -197 -293 -300 -300 -300 -300 -300 -300 -300 -300 -300 -300 -300 -300 -300 -300 -300 -300 -300 -300 -300 -300 -300 -300 -300 -300 -300 -300 -300 -300 -300 -300 -269 -202 -166 -200 -172 -153 -87 -98 -122 -188 -229 -141 -36 29 126 236 365 380 337 397 452 433 482 560 625 632 659 717 755 789 824 865 894 876 900 838 843 789 762 647 489 392 338 191 71 -54 -194 -230 -238 -217 -212 -189 -247 -300 -300 -300 -300 -300 -300 -300 -300
-253 -255 -244 -300 -300 -300 -300 -300 -300 -300 -300 -300 -300 -300 -300 -300 -300 -300 -300 -300 -300 -300 -300 -300 -300 -300 -300 -300 -300 -300 -300 -300 -300 -300 -300 -300 -300 -300 -300 -300 -300 -300 -300 -300 -300 -300 -221 -144 -54 19 70 97 175 199 198 208 170 111 98 52 -57 -181 -252 -300 -300 -300 -300 -300 -300 -300 -224 -224 -223 -267 -273 -300 -300 -300 -300 -271 -191 -150 -174 -158 -82 22 93 139 149 181 239 294 270 255 236 231 148 72 58 107 73 19 -14 13 -8 -82 -58 -11 -43 -41 -33 -7 17 73 187 251 209 212 245 237 220 199 153 156 140 105 61 23 9 -4 -47 -65 -95 -129 -134 -123 -123 -128 -158 -127 -114 -191 -227 -257 -300 -300 -226 -122 -47 -23 -8 24 28 83 122 146 203 257 189 99 -15 -114 -192 -240 -300 -300 -300 -300 -300 -300 -300 -300 -300 -300 -300 -300 -300 -300 -300 -300 -300 -300 -300 -300 -300 -300 -300 -300 -300 -300 -300 -300 -300 -300 -300 -205 -167 -176 -190 -138 -140 -125 -145 -191 -199 -199 -146 -42 3 160 266 380 389 354 385 459 470 530 573 623 649 698 771 773 782 791 822 885 918 956 898 859 795 784 671 535 423 320 180 120 6 -142 -211 -224 -206 -233 -231 -268 -285 -300 -300 -300 -300 -300 -300 -300
-300 -300 -300 -300 -300 -300 -300 -300 -300 -300 -300 -300 -300 -300 -300 -300 -300 -300 -300 -300 -300 -300 -300 -300 -300 -300 -300 -300 -300 -300 -300 -300 -300 -300 -300 -300 -300 -300 -300 -300 -300 -300 -300 -300 -300 -300 -273 -196 -88 -17 28 66 164 207 241 209 162 152 179 181 55 -42 -118 -207 -294 -300 -300 -238 -232 -219 -215 -203 -200 -220 -259 -282 -300 -300 -300 -300 -300 -270 -211 -139 -92 -23 2 45 94 177 233 269 246 204 141 93 32 27 46 91 80 69 22 -3 -53 -61 -75 -34 -82 -83 -61 -41 11 126 197 274 268 304 324 265 198 170 179 177 177 101 31 24 -16 -30 -75 -113 -151 -141 -129 -137 -134 -170 -171 -142 -146 -158 -238 -293 -300 -263 -190 -107 -63 -71 9 51 30 60 123 146 170 175 156 66 -35 -159 -193 -234 -266 -300 -300 -300 -300 -300 -300 -300 -300 -300 -300 -300 -300 -300 -300 -300 -300 -300 -300 -300 -300 -300 -300 -300 -300 -300 -300 -300 -300 -300 -289 -223 -153 -151 -163 -112 -120 -126 -77 -125 -153 -177 -91 25 82 161 233 330 370 421 448 460 499 546 594 620 609 691 767 817 804 788 820 902 939 936 897 861 769 755 641 542 399 303 169 79 -35 -141 -231 -277 -281 -282 -275 -263 -297 -300 -300 -300 -300 -300 -300 -300
-300 -300 -300 -300 -300 -300 -300 -300 -300 -300 -300 -300 -300 -300 -300 -300 -300 -300 -300 -300 -300 -300 -300 -300 -300 -300 -300 -300 -300 -300 -300 -300 -300 -300 -300 -300 -300 -300 -300 -300 -300 -300 -300 -300 -300 -300 -300 -263 -149 -115 -39 71 137 219 274 274 267 210 257 226 137 39 -11 -145 -261 -300 -235 -153 -167 -225 -260 -247 -227 -209 -278 -287 -283 -300 -300 -300 -300 -300 -212 -152 -137 -92 -109 -22 47 181 221 200 175 125 66 -39 -30 -17 24 68 44 50 58 -13 -79 -93 -96 -114 -121 -70 -51 -65 17 134 182 266 302 363 314 266 201 168 242 281 212 117 35 16 -45 -78 -86 -105 -139 -158 -150 -118 -137 -155 -145 -129 -102 -149 -200 -212 -195 -167 -134 -112 -136 -119 -30 5 -1 -4 55 129 104 137 116 49 -46 -179 -208 -227 -239 -300 -300 -300 -300 -300 -300 -300 -300 -300 -300 -300 -300 -300 -300 -300 -300 -300 -300 -300 -300 -300 -300 -300 -300 -300 -300 -300 -300 -259 -207 -165 -82 -80 -86 -99 -63 -76 -70 -110 -137 -152 -67 36 166 184 268 304 367 458 500 495 520 559 627 630 613 699 772 863 826 798 817 896 899 915 890 863 789 734 585 504 401 295 185 38 -99 -180 -242 -282 -300 -300 -300 -297 -300 -300 -300 -300 -300 -300 -300 -300
-300 -300 -300 -300 -300 -300 -300 -300 -300 -300 -300 -300 -300 -300 -300 -300 -300 -300 -300 -300 -300 -300 -300 -300 -300 -300 -300 -300 -300 -300 -300 -300 -300 -300 -300 -300 -300 -300 -300 -300 -300 -300 -300 -300 -300 -300 -300 -300 -231 -148 -43 26 44 128 245 335 354 298 319 258 178 85 27 -104 -162 -200 -154 -151 -198 -259 -300 -300 -255 -219 -257 -226 -246 -300 -300 -300 -300 -300 -257 -228 -242 -174 -110 -17 42 125 156 113 96 67 29 -92 -138 -157 -99 -57 -52 -62 -43 -80 -165 -196 -178 -163 -92 -66 -10 -2 3 110 198 256 299 362 342 313 206 162 223 264 197 118 24 -19 -105 -124 -82 -35 -73 -127 -160 -125 -125 -139 -118 -91 -28 -54 -67 -99 -109 -81 -95 -136 -130 -116 -58 -35 -31 -3 15 87 126 139 67 -37 -113 -202 -262 -270 -244 -300 -300 -300 -300 -300 -300 -300 -300 -300 -300 -300 -300 -300 -300 -300 -300 -300 -300 -300 -300 -300 -300 -300 -300 -300 -300 -286 -234 -165 -116 -51 23 37 49 5 -17 14 -23 -90 -107 -88 10 75 183 261 339 329 370 455 520 520 544 597 640 629 611 708 788 840 832 848 823 876 908 932 932 914 819 713 606 497 351 312 223 59 -81 -150 -221 -243 -295 -300 -300 -300 -300 -300 -300 -300 -300 -300 -300 -300
-300 -300 -300 -300 -300 -300 -300 -300 -300 -300 -300 -300 -300 -300 -300 -300 -300 -300 -300 -300 -300 -300 -300 -300 -300 -300 -300 -300 -300 -300 -300 -300 -300 -300 -300 -300 -300 -300 -300 -300 -300 -300 -300 -300 -300 -300 -300 -300 -300 -204 -99 -6 2 84 187 342 418 412 375 293 247 182 127 1 -66 -77 -78 -76 -164 -204 -275 -300 -237 -193 -219 -231 -240 -270 -290 -300 -300 -300 -300 -287 -251 -234 -123 -26 31 61 71 32 16 -19 -29 -112 -247 -235 -190 -196 -149 -106 -141 -153 -177 -212 -213 -221 -156 -90 3 -17 -4 82 163 198 279 310 341 319 289 254 243 243 232 139 36 -30 -90 -137 -29 3 -14 -65 -132 -141 -167 -148 -69 -39 -19 -27 -28 -14 -23 -43 -22 -67 -103 -90 -59 -54 -29 -45 -24 43 64 85 65 -5 -91 -168 -238 -244 -263 -300 -300 -300 -300 -300 -300 -300 -300 -300 -300 -300 -300 -300 -300 -300 -300 -300 -300 -300 -300 -300 -300 -300 -300 -286 -252 -252 -183 -100 -21 40 49 103 118 93 82 77 -49 -101 -108 -35 47 116 212 276 329 326 374 409 472 458 500 537 585 589 585 684 721 746 804 807 816 842 882 912 942 887 786 707 600 472 340 251 155 47 -64 -121 -180 -218 -260 -293 -300 -300 -300 -300 -300 -300 -300 -300 -300 -300
-300 -300 -300 -300 -300 -300 -300 -300 -300 -300 -300 -300 -300 -300 -300 -300 -300 -300 -300 -300 -300 -300 -300 -300 -300 -300 -300 -300 -300 -300 -300 -300 -300 -300 -300 -300 -300 -300 -300 -300 -300 -300 -300 -300 -300 -300 -300 -300 -300 -298 -197 -76 9 92 181 272 393 450 401 394 369 311 216 103 21 -4 -28 7 -94 -124 -184 -257 -204 -147 -156 -227 -231 -253 -288 -300 -300 -300 -300 -266 -235 -179 -105 -61 -49 -34 -32 -30 -97 -132 -111 -114 -204 -249 -231 -240 -203 -145 -180 -185 -137 -184 -191 -189 -178 -135 -73 -30 19 64 165 223 272 252 274 334 365 303 243 248 234 180 108 34 -13 -15 24 23 31 20 -52 -151 -204 -196 -94 -31 -29 -39 -7 9 -25 -38 8 -10 -56 -59 -88 -70 -67 -41 -52 11 21 30 26 28 -57 -107 -211 -259 -300 -300 -300 -300 -300 -300 -300 -300 -300 -300 -300 -300 -300 -300 -300 -300 -300 -300 -300 -300 -300 -289 -287 -271 -230 -179 -170 -211 -165 -91 -5 58 53 110 139 131 70 23 -28 -48 -43 3 12 91 183 225 276 303 374 412 410 408 423 491 534 533 573 647 716 720 749 773 809 822 852 906 899 830 746 656 572 446 308 190 117 30 -46 -85 -143 -180 -233 -238 -228 -296 -300 -300 -300 -300 -300 -300 -300 -300
-300 -300 -300 -300 -300 -300 -300 -300 -300 -300 -300 -300 -300 -300 -300 -300 -300 -300 -300 -300 -300 -300 -300 -300 -300 -300 -300 -300 -300 -300 -300 -300 -300 -300 -300 -300 -300 -300 -300 -300 -300 -300 -300 -300 -300 -300 -300 -300 -300 -300 -217 -102 33 109 184 223 307 423 441 420 400 344 243 146 60 63 38 18 -63 -80 -149 -215 -150 -140 -117 -148 -177 -231 -298 -300 -300 -300 -298 -262 -224 -151 -108 -67 -77 -109 -103 -76 -98 -145 -140 -112 -127 -148 -207 -246 -211 -192 -211 -168 -97 -128 -148 -149 -162 -104 -63 8 54 86 202 248 278 262 255 333 383 342 303 253 224 179 111 65 71 51 7 13 5 -2 -45 -165 -226 -188 -94 -38 -35 -52 -26 14 7 -29 -2 -40 -92 -90 -86 -70 -78 -77 -76 7 74 80 59 5 -84 -135 -215 -272 -300 -300 -300 -300 -300 -300 -300 -300 -300 -300 -300 -300 -300 -300 -300 -300 -300 -281 -273 -279 -258 -263 -292 -278 -214 -149 -113 -166 -186 -145 -74 -11 4 86 110 93 28 -29 -21 -32 -23 -11 -17 22 78 166 224 271 328 377 394 394 391 439 494 520 586 668 754 768 797 858 879 857 866 901 881 798 727 617 507 394 291 184 125 40 -87 -125 -128 -149 -205 -235 -216 -268 -300 -300 -300 -300 -300 -300 -300 -300
-300 -300 -300 -300 -300 -300 -300 -300 -300 -300 -300 -300 -300 -300 -300 -300 -300 -300 -300 -300 -300 -300 -300 -300 -300 -300 -300 -300 -300 -300 -300 -300 -300 -300 -300 -300 -300 -300 -300 -300 -300 -300 -300 -300 -300 -300 -300 -300 -300 -300 -243 -126 11 116 167 185 228 337 383 406 394 329 237 123 70 61 50 60 64 -27 -85 -165 -173 -181 -141 -164 -208 -239 -300 -300 -300 -300 -300 -262 -223 -145 -120 -141 -125 -160 -157 -124 -92 -55 -66 -21 4 -47 -118 -190 -206 -212 -170 -125 -91 -62 -81 -89 -112 -116 -97 -28 42 78 151 181 219 191 211 296 359 354 307 238 219 137 85 124 96 67 -41 -63 -63 -79 -82 -122 -153 -121 -118 -51 -16 -49 -22 -15 -11 1 1 -20 -49 -64 -61 -86 -54 -43 -5 13 62 67 28 -42 -84 -133 -225 -299 -300 -300 -300 -300 -300 -300 -300 -300 -300 -300 -300 -300 -300 -300 -300 -300 -300 -271 -198 -239 -237 -239 -285 -288 -228 -152 -94 -123 -152 -119 -68 -23 41 90 99 25 -43 -52 -19 -18 -33 -45 -84 -83 -21 41 111 184 263 335 348 337 341 392 455 516 581 725 765 750 769 837 885 850 854 867 857 806 689 604 466 398 328 250 163 46 -29 -87 -89 -106 -173 -214 -227 -243 -264 -300 -300 -300 -300 -300 -300 -300
-300 -300 -300 -300 -300 -300 -300 -300 -300 -300 -300 -300 -300 -300 -300 -300 -300 -300 -300 -300 -300 -300 -300 -300 -300 -300 -300 -300 -300 -300 -300 -300 -300 -300 -300 -300 -300 -300 -300 -300 -300 -300 -300 -300 -300 -300 -300 -300 -300 -300 -271 -160 -67 67 143 151 219 277 329 331 323 278 234 168 129 127 134 120 117 26 -28 -114 -165 -176 -144 -187 -211 -212 -237 -300 -300 -300 -300 -300 -244 -157 -120 -134 -114 -192 -191 -125 -74 -22 -15 4 29 13 -68 -119 -133 -191 -151 -111 -93 -83 -96 -92 -127 -160 -178 -72 6 34 91 134 150 173 205 266 288 279 267 176 124 107 67 71 26 -25 -110 -148 -150 -159 -158 -135 -76 -60 -98 -121 -73 -34 -57 -55 -23 74 82 56 45 27 -18 -61 -56 -57 3 14 50 53 14 -8 -43 -105 -186 -279 -300 -300 -300 -300 -300 -300 -300 -300 -300 -300 -300 -300 -300 -300 -300 -300 -277 -224 -162 -147 -199 -216 -232 -240 -204 -170 -114 -94 -140 -122 -52 -24 11 46 2 -42 -49 -58 -76 -77 -80 -91 -99 -137 -87 -36 20 60 158 231 250 234 238 367 456 522 572 694 710 681 707 745 809 810 825 778 750 731 665 596 485 400 332 259 141 61 4 -8 -18 -27 -106 -150 -182 -208 -230 -245 -226 -262 -300 -300 -300 -300
-300 -300 -300 -300 -300 -300 -300 -300 -300 -300 -300 -300 -300 -300 -300 -300 -300 -300 -300 -300 -300 -300 -300 -300 -300 -300 -300 -300 -300 -300 -300 -300 -300 -300 -300 -300 -300 -300 -300 -300 -300 -300 -300 -300 -300 -300 -300 -300 -300 -300 -300 -207 -150 -29 110 158 248 280 345 330 326 264 186 149 102 111 148 149 100 16 -15 -67 -114 -130 -96 -104 -159 -184 -218 -265 -300 -300 -300 -300 -217 -150 -99 -120 -94 -130 -149 -66 10 22 38 74 59 35 -39 -55 -69 -116 -92 -85 -105 -120 -164 -133 -148 -168 -194 -84 14 44 87 147 125 113 154 208 272 219 177 140 86 55 52 15 -70 -125 -178 -170 -193 -221 -182 -142 -66 -66 -102 -116 -131 -75 -82 -56 -4 83 111 98 93 71 60 -22 -34 -14 6 11 -4 27 25 -39 -69 -144 -233 -300 -300 -300 -300 -300 -300 -300 -300 -300 -300 -300 -300 -300 -300 -300 -300 -300 -300 -239 -223 -203 -230 -232 -208 -206 -167 -156 -152 -114 -154 -184 -126 -60 -55 -31 -42 -65 -95 -72 -129 -146 -113 -116 -116 -169 -108 -67 -18 22 103 171 240 233 242 308 400 475 541 644 637 607 661 699 757 744 747 696 685 645 604 576 510 416 367 271 125 30 -30 -21 -16 10 -79 -110 -110 -91 -158 -202 -227 -196 -247 -269 -300 -300
-300 -300 -300 -300 -300 -300 -300 -300 -300 -300 -300 -300 -300 -300 -300 -300 -300 -300 -300 -300 -300 -300 -300 -300 -300 -300 -300 -300 -300 -300 -300 -300 -300 -300 -300 -300 -300 -300 -300 -300 -300 -300 -300 -300 -300 -300 -300 -300 -300 -300 -300 -282 -183 -61 76 153 228 311 319 321 248 239 223 144 130 139 154 162 115 37 38 17 -25 -37 -48 -43 -54 -122 -167 -222 -300 -300 -300 -299 -229 -134 -81 -54 -45 -50 -27 -8 65 107 94 109 130 77 19 24 -30 -82 -79 -73 -76 -170 -208 -209 -193 -208 -175 -111 -43 -21 30 108 77 89 113 163 177 176 126 87 24 -13 -36 -91 -146 -211 -274 -296 -276 -300 -283 -178 -107 -101 -115 -78 -67 -80 -102 -103 -16 50 100 101 78 71 57 -8 -9 -8 -24 2 -28 2 -26 -19 -83 -166 -265 -300 -300 -300 -300 -300 -299 -300 -297 -300 -277 -298 -281 -278 -288 -300 -300 -300 -289 -299 -235 -259 -249 -250 -203 -171 -114 -96 -100 -75 -137 -206 -185 -145 -103 -112 -132 -165 -170 -146 -205 -203 -153 -163 -168 -183 -139 -102 -60 14 56 124 154 189 238 319 427 477 546 577 562 533 549 646 676 661 671 663 634 621 570 554 491 423 324 216 89 51 22 -19 -8 17 -28 -21 -14 7 -54 -150 -173 -145 -147 -151 -159 -279
-300 -300 -300 -300 -300 -300 -300 -300 -300 -300 -300 -300 -300 -300 -300 -300 -300 -300 -300 -300 -300 -300 -300 -300 -300 -300 -300 -300 -300 -300 -300 -300 -300 -300 -300 -300 -300 -300 -300 -300 -300 -300 -300 -300 -300 -300 -300 -300 -300 -300 -300 -286 -199 -41 77 129 188 310 326 276 215 230 219 163 123 150 166 145 125 126 108 66 20 -23 -50 -12 -24 -94 -172 -267 -300 -300 -290 -273 -198 -85 -22 3 39 31 79 96 157 218 198 140 133 114 97 58 7 -68 -79 -95 -92 -175 -221 -244 -220 -220 -202 -163 -100 -54 -34 7 -4 0 47 45 83 107 59 5 -55 -86 -129 -175 -207 -263 -300 -300 -300 -300 -300 -235 -222 -147 -80 -24 -29 -72 -122 -108 -25 6 41 49 33 21 0 0 -35 -71 -38 -21 -73 -99 -134 -124 -166 -242 -300 -300 -300 -300 -300 -300 -286 -278 -240 -243 -181 -204 -225 -260 -278 -300 -300 -300 -296 -300 -243 -249 -265 -223 -186 -143 -73 -55 -48 -19 -45 -129 -175 -174 -138 -181 -263 -293 -258 -222 -264 -216 -173 -200 -213 -207 -221 -128 -59 11 49 85 86 107 190 298 382 459 582 578 532 493 499 533 608 620 649 652 646 606 603 581 481 387 262 191 90 92 96 56 32 51 43 38 33 26 -17 -78 -64 -65 -93 -80 -65 -158
-300 -300 -300 -300 -300 -300 -300 -300 -300 -300 -300 -300 -300 -300 -300 -300 -300 -300 -300 -300 -300 -300 -300 -300 -300 -300 -300 -300 -300 -300 -300 -300 -300 -300 -300 -300 -300 -300 -300 -300 -300 -300 -300 -300 -300 -300 -300 -300 -300 -300 -300 -231 -174 -22 111 194 248 355 336 307 265 235 219 193 164 181 161 155 118 171 214 153 64 -9 -55 -41 -37 -58 -150 -231 -280 -260 -190 -147 -101 11 9 22 98 106 121 134 200 256 204 163 148 132 151 72 6 -74 -119 -103 -108 -168 -230 -265 -270 -265 -275 -227 -187 -123 -118 -112 -78 -22 37 -11 -20 4 -20 -57 -58 -97 -156 -192 -239 -300 -300 -300 -300 -300 -300 -300 -261 -223 -106 -47 -73 -108 -162 -120 -44 -3 16 -22 -81 -85 -62 -30 -99 -83 -8 -22 -54 -121 -180 -189 -226 -300 -300 -293 -300 -300 -266 -244 -225 -175 -169 -180 -158 -185 -222 -256 -268 -300 -300 -300 -265 -242 -219 -220 -191 -120 -129 -85 -35 5 -3 -5 -22 -86 -188 -227 -224 -271 -300 -300 -270 -239 -287 -256 -235 -229 -243 -194 -207 -170 -100 -16 -11 13 21 95 211 270 308 383 492 531 512 459 487 522 572 545 553 544 581 572 612 549 426 347 256 221 142 129 126 108 86 107 104 82 51 32 9 -12 12 25 -6 20 58 5
-300 -300 -300 -300 -300 -300 -300 -300 -300 -300 -300 -300 -300 -300 -300 -300 -300 -300 -300 -300 -300 -300 -300 -300 -300 -300 -300 -300 -300 -300 -300 -300 -300 -300 -300 -300 -300 -300 -300 -300 -300 -300 -300 -300 -300 -300 -300 -300 -300 -300 -259 -184 -108 11 113 214 270 312 359 335 346 304 288 258 223 181 187 170 132 211 238 200 124 36 10 -27 -18 -47 -143 -149 -202 -188 -115 -69 -15 55 48 55 93 114 109 145 207 246 184 90 98 66 63 65 -12 -86 -178 -156 -151 -206 -267 -297 -300 -300 -300 -300 -236 -220 -222 -204 -152 -49 -63 -97 -125 -102 -140 -125 -114 -118 -148 -214 -275 -300 -300 -300 -300 -300 -300 -300 -300 -269 -198 -109 -123 -142 -167 -149 -88 -40 -25 -58 -109 -181 -117 -75 -102 -96 -72 -46 -65 -141 -221 -239 -281 -300 -300 -295 -300 -300 -265 -196 -186 -117 -110 -119 -107 -131 -207 -248 -263 -300 -300 -300 -294 -220 -147 -138 -108 -69 -109 -84 -29 6 18 -14 -25 -97 -176 -243 -281 -300 -300 -300 -258 -256 -244 -270 -292 -277 -286 -246 -195 -183 -100 -49 -36 -3 26 88 204 219 202 301 403 494 505 488 493 486 501 492 467 478 507 498 503 506 415 294 235 222 195 173 213 190 206 195 177 121 49 42 48 49 91 89 89 121 103 76
-300 -300 -300 -300 -300 -300 -300 -300 -300 -300 -300 -300 -300 -300 -300 -300 -300 -300 -300 -300 -300 -300 -300 -300 -300 -300 -300 -300 -300 -300 -300 -300 -300 -300 -300 -300 -300 -300 -300 -300 -300 -300 -300 -300 -300 -300 -300 -300 -300 -300 -229 -180 -107 24 130 225 278 296 329 325 364 339 337 329 291 254 268 268 247 292 310 290 268 174 130 83 21 -54 -61 -89 -161 -136 -99 -105 -51 59 118 89 97 147 177 185 198 210 107 41 42 -34 -77 -55 -107 -165 -236 -276 -276 -292 -300 -300 -300 -300 -300 -300 -300 -300 -300 -300 -236 -162 -134 -140 -188 -159 -202 -217 -213 -168 -205 -278 -286 -300 -300 -300 -300 -300 -300 -300 -300 -300 -249 -165 -137 -126 -153 -190 -202 -182 -152 -175 -226 -277 -199 -157 -169 -187 -196 -192 -203 -191 -205 -273 -298 -300 -300 -300 -300 -278 -236 -185 -172 -143 -174 -155 -118 -135 -203 -225 -281 -300 -300 -300 -291 -182 -103 -103 -124 -111 -128 -95 -30 69 61 2 -87 -153 -183 -257 -300 -300 -300 -300 -297 -298 -239 -251 -300 -300 -264 -249 -188 -177 -141 -93 -27 13 76 121 188 155 145 238 292 363 422 474 488 481 452 445 405 397 432 485 435 437 375 278 281 253 217 183 278 309 355 302 250 171 119 94 106 112 154 191 186 176 132 54
-300 -300 -300 -300 -300 -300 -300 -300 -300 -300 -300 -300 -300 -300 -300 -300 -300 -300 -300 -300 -300 -300 -300 -300 -300 -300 -300 -300 -300 -300 -300 -300 -300 -300 -300 -300 -300 -300 -300 -300 -300 -300 -300 -300 -300 -300 -300 -300 -300 -300 -265 -198 -136 -14 82 193 254 291 306 313 364 366 332 371 347 313 330 333 386 405 403 378 383 310 236 179 140 54 0 -49 -89 -117 -88 -67 -18 99 121 101 87 121 172 137 164 143 30 -52 -43 -130 -201 -198 -265 -300 -300 -300 -300 -300 -300 -300 -300 -300 -300 -300 -300 -300 -300 -300 -300 -229 -187 -232 -246 -202 -237 -263 -300 -265 -258 -300 -300 -300 -300 -300 -300 -300 -300 -300 -300 -300 -209 -183 -209 -195 -216 -240 -281 -292 -261 -281 -300 -300 -265 -217 -218 -253 -293 -292 -282 -244 -258 -276 -254 -271 -285 -248 -228 -208 -224 -168 -146 -165 -171 -176 -113 -117 -214 -265 -300 -300 -300 -300 -300 -221 -129 -94 -109 -129 -130 -63 -7 63 54 37 -54 -142 -186 -240 -300 -300 -300 -270 -265 -256 -207 -249 -300 -300 -252 -231 -163 -161 -183 -151 -83 -69 12 53 104 87 116 197 239 273 353 449 421 401 401 376 374 375 426 465 411 461 447 342 331 338 277 275 350 389 439 384 292 215 215 158 136 136 179 217 148 145 136 30
-300 -300 -300 -300 -300 -300 -300 -300 -300 -300 -300 -300 -300 -300 -300 -300 -300 -300 -300 -300 -300 -300 -300 -300 -300 -300 -300 -300 -300 -300 -300 -300 -300 -300 -300 -300 -300 -300 -300 -300 -300 -300 -300 -300 -300 -300 -300 -300 -300 -300 -295 -215 -149 -37 72 179 233 325 305 320 365 384 341 360 394 413 390 405 486 505 490 490 476 391 300 242 213 152 57 23 -75 -116 -86 -33 44 110 98 111 66 75 95 100 98 78 -30 -123 -147 -216 -300 -300 -300 -300 -300 -300 -300 -300 -300 -300 -300 -300 -300 -300 -300 -300 -300 -300 -300 -269 -269 -296 -300 -282 -295 -300 -300 -300 -300 -300 -300 -300 -300 -300 -300 -300 -300 -300 -300 -300 -234 -180 -214 -283 -300 -300 -300 -300 -300 -300 -300 -300 -300 -262 -264 -300 -300 -300 -300 -300 -300 -276 -258 -222 -215 -212 -172 -170 -190 -160 -146 -157 -159 -143 -151 -173 -227 -283 -300 -300 -300 -299 -300 -245 -137 -123 -107 -153 -142 -62 33 33 20 49 -17 -104 -154 -203 -300 -300 -300 -223 -235 -223 -172 -227 -275 -288 -256 -196 -167 -156 -209 -221 -199 -133 -40 -1 24 46 90 128 155 211 298 380 353 324 344 353 350 364 448 467 474 500 490 432 438 430 418 389 385 414 458 443 381 323 290 212 198 171 190 185 116 82 62 31
-300 -300 -300 -300 -300 -300 -300 -300 -300 -300 -300 -300 -300 -300 -300 -300 -300 -300 -300 -300 -300 -300 -300 -300 -300 -300 -300 -300 -300 -300 -300 -300 -300 -300 -300 -300 -300 -300 -300 -300 -300 -300 -300 -300 -300 -300 -300 -300 -300 -300 -253 -186 -116 -44 33 119 244 347 319 359 413 450 472 481 464 450 408 494 556 527 505 508 464 451 389 306 201 141 129 84 -23 -69 -58 0 24 47 72 53 -21 -19 22 65 44 2 -89 -162 -258 -300 -300 -300 -300 -300 -300 -300 -300 -300 -300 -300 -300 -300 -300 -300 -300 -300 -300 -300 -300 -300 -300 -300 -300 -300 -300 -300 -300 -300 -300 -300 -300 -300 -300 -300 -300 -300 -300 -300 -300 -300 -286 -238 -237 -300 -300 -300 -300 -300 -300 -300 -300 -300 -300 -300 -300 -300 -300 -300 -300 -300 -300 -300 -276 -196 -183 -197 -124 -101 -136 -178 -162 -150 -169 -154 -180 -197 -202 -255 -263 -294 -300 -300 -300 -227 -99 -72 -108 -137 -89 -47 48 63 18 65 34 -64 -164 -247 -296 -300 -282 -196 -180 -190 -163 -191 -242 -295 -270 -186 -177 -188 -210 -217 -235 -160 -123 -31 14 -12 41 95 158 200 217 258 274 344 364 364 360 406 492 485 470 442 451 447 503 521 520 460 460 464 444 445 433 363 330 281 234 201 188 196 176 118 17 -33
-300 -300 -300 -300 -300 -300 -300 -300 -300 -300 -300 -300 -300 -300 -300 -300 -300 -300 -300 -300 -300 -300 -300 -300 -300 -300 -300 -300 -300 -300 -300 -300 -300 -300 -300 -300 -300 -300 -300 -300 -300 -300 -300 -300 -300 -300 -300 -300 -300 -300 -285 -160 -51 24 89 127 238 332 339 391 480 532 565 551 561 536 514 533 562 520 497 548 509 500 423 357 273 160 142 102 71 22 38 80 65 36 24 27 -29 -54 -12 6 -9 -60 -128 -174 -300 -300 -300 -300 -300 -300 -300 -300 -300 -300 -300 -300 -300 -300 -300 -300 -300 -300 -300 -300 -300 -300 -300 -300 -300 -300 -300 -300 -300 -300 -300 -300 -300 -300 -300 -300 -300 -300 -300 -300 -300 -300 -300 -281 -300 -300 -300 -300 -300 -300 -300 -300 -300 -300 -300 -300 -300 -300 -300 -300 -300 -300 -300 -300 -300 -198 -154 -172 -97 -68 -95 -160 -116 -119 -103 -124 -145 -150 -173 -210 -256 -231 -268 -300 -279 -202 -100 -51 -73 -35 -41 13 55 88 70 132 106 18 -134 -242 -254 -276 -260 -225 -224 -215 -236 -227 -264 -264 -246 -188 -216 -239 -202 -231 -249 -178 -147 -81 -59 -33 -16 58 132 180 183 191 273 347 434 416 428 449 511 485 423 437 471 490 552 566 534 534 567 501 462 462 463 439 346 287 262 253 206 190 221 180 90 17
-300 -300 -300 -300 -300 -300 -300 -300 -300 -300 -300 -300 -300 -300 -300 -300 -300 -300 -300 -300 -300 -300 -300 -300 -300 -300 -300 -300 -300 -300 -300 -300 -300 -300 -300 -300 -300 -300 -300 -300 -300 -300 -300 -300 -300 -300 -300 -300 -300 -300 -300 -171 -3 66 125 190 277 362 371 433 533 593 602 634 652 670 654 597 578 547 500 548 574 548 530 450 339 230 178 187 184 142 155 179 143 57 52 68 41 15 -1 12 -27 -111 -177 -218 -298 -300 -300 -300 -300 -300 -300 -300 -300 -300 -300 -300 -300 -300 -300 -300 -300 -300 -300 -300 -300 -300 -300 -300 -300 -300 -300 -300 -300 -300 -300 -300 -300 -300 -300 -300 -300 -300 -300 -300 -300 -300 -300 -300 -300 -300 -300 -300 -300 -300 -300 -300 -300 -300 -300 -300 -300 -300 -300 -300 -300 -300 -300 -300 -300 -212 -133 -110 -28 -16 -20 -89 -54 -28 -43 -61 -87 -130 -143 -192 -249 -231 -228 -271 -245 -146 -92 -27 2 57 48 76 137 172 182 225 198 86 -67 -201 -247 -279 -258 -274 -269 -264 -286 -278 -300 -263 -215 -211 -269 -263 -216 -197 -201 -155 -148 -157 -105 -53 -1 42 93 133 179 193 264 356 449 495 527 511 508 449 377 428 489 513 517 504 520 542 582 566 491 493 522 515 440 350 292 311 289 235 277 316 204 102
-300 -300 -300 -300 -300 -300 -300 -300 -300 -300 -300 -300 -300 -300 -300 -300 -300 -300 -300 -300 -300 -300 -300 -300 -300 -300 -300 -300 -300 -300 -300 -300 -300 -300 -300 -300 -300 -300 -300 -300 -300 -300 -300 -300 -300 -300 -300 -300 -300 -300 -296 -224 -48 105 193 287 331 379 390 452 546 634 674 750 768 722 674 626 596 595 604 569 562 560 593 491 375 298 278 270 260 252 218 209 189 83 71 103 112 53 -4 -4 -46 -115 -177 -236 -300 -300 -300 -300 -300 -300 -300 -300 -300 -300 -300 -300 -300 -300 -300 -300 -300 -300 -300 -300 -300 -300 -300 -300 -300 -300 -300 -300 -300 -300 -300 -300 -300 -300 -300 -300 -300 -300 -300 -300 -300 -300 -300 -300 -300 -300 -300 -300 -300 -300 -300 -300 -300 -300 -300 -300 -300 -300 -300 -300 -300 -300 -300 -300 -300 -250 -114 -55 -33 -5 47 14 1 17 22 -22 -92 -156 -159 -195 -195 -192 -220 -213 -184 -91 -47 41 46 103 134 164 200 203 246 262 202 97 -20 -81 -120 -145 -159 -229 -260 -274 -283 -258 -288 -247 -282 -300 -300 -300 -300 -245 -208 -183 -155 -136 -55 -3 74 80 108 126 191 248 293 383 451 540 557 531 471 442 388 437 446 479 479 450 506 539 555 562 551 563 569 562 531 422 353 375 342 333 364 379 353 268
-300 -300 -300 -300 -300 -300 -300 -300 -300 -300 -300 -300 -300 -300 -300 -300 -300 -300 -300 -300 -300 -300 -300 -300 -300 -300 -300 -300 -300 -300 -300 -300 -300 -300 -300 -300 -300 -300 -300 -300 -300 -300 -300 -300 -300 -300 -300 -300 -300 -300 -291 -235 -59 107 212 328 328 368 431 511 566 626 704 728 788 750 692 624 627 650 639 640 616 594 608 531 430 356 316 309 264 226 210 208 164 121 58 82 81 100 86 64 32 -35 -89 -176 -249 -300 -300 -300 -300 -300 -300 -300 -300 -300 -300 -300 -300 -300 -300 -300 -300 -300 -300 -300 -300 -300 -300 -300 -300 -300 -300 -300 -300 -300 -300 -300 -300 -300 -300 -300 -300 -300 -300 -300 -300 -300 -300 -300 -300 -300 -300 -300 -300 -300 -300 -300 -300 -300 -300 -300 -300 -300 -300 -300 -300 -300 -300 -300 -300 -274 -165 -73 -29 16 76 46 -1 29 19 -7 -93 -164 -203 -172 -192 -169 -169 -148 -119 -64 -3 81 96 120 206 250 222 229 296 282 261 169 102 30 -49 -69 -99 -92 -167 -233 -256 -276 -300 -300 -300 -300 -300 -300 -300 -276 -236 -249 -197 -139 -83 0 93 121 111 101 191 244 242 337 434 496 531 544 438 411 419 379 348 386 414 448 494 519 534 499 534 588 592 607 624 541 491 457 465 447 423 483 480 355
-300 -300 -300 -300 -300 -300 -300 -300 -300 -300 -300 -300 -300 -300 -300 -300 -300 -300 -300 -300 -300 -300 -300 -300 -300 -300 -300 -300 -300 -300 -300 -300 -300 -300 -300 -300 -300 -300 -300 -300 -300 -300 -300 -300 -300 -300 -300 -300 -300 -300 -300 -249 -57 68 193 304 321 365 438 511 568 616 637 649 725 722 671 634 640 666 658 660 665 680 649 546 468 423 362 327 303 243 187 156 154 124 52 91 123 139 124 92 122 79 42 -69 -167 -300 -300 -300 -300 -300 -300 -300 -300 -300 -300 -300 -300 -300 -300 -300 -300 -300 -300 -300 -300 -300 -300 -300 -300 -300 -300 -300 -300 -300 -300 -300 -300 -300 -300 -300 -300 -300 -300 -300 -300 -300 -300 -300 -300 -300 -300 -300 -300 -300 -300 -300 -300 -300 -300 -300 -300 -300 -300 -300 -300 -300 -300 -300 -300 -246 -155 -66 -47 11 52 66 -8 3 33 19 -88 -123 -177 -169 -159 -116 -112 -84 -91 -81 -21 62 98 134 236 278 276 267 291 272 254 232 190 102 -8 -77 -72 -44 -119 -222 -300 -300 -300 -300 -300 -300 -300 -300 -300 -294 -300 -290 -238 -167 -103 11 114 126 102 105 165 225 238 310 412 448 449 453 387 402 389 300 287 339 371 417 477 498 482 464 519 606 627 656 699 650 593 586 573 546 541 549 537 417
-300 -300 -300 -300 -300 -300 -300 -300 -300 -300 -300 -300 -300 -300 -300 -300 -300 -300 -300 -300 -300 -300 -300 -300 -300 -300 -300 -300 -300 -300 -300 -300 -300 -300 -300 -300 -300 -300 -300 -300 -300 -300 -300 -300 -300 -300 -300 -300 -300 -300 -286 -228 -54 114 211 273 323 414 513 568 588 593 630 615 654 676 620 624 611 593 581 579 640 653 610 572 551 548 425 310 279 253 207 172 136 145 108 127 186 173 170 150 174 138 82 -37 -136 -249 -300 -300 -300 -300 -300 -300 -300 -300 -300 -300 -300 -300 -300 -300 -300 -300 -300 -300 -300 -300 -300 -300 -300 -300 -300 -300 -300 -300 -300 -300 -300 -300 -300 -300 -300 -300 -300 -300 -300 -300 -300 -300 -300 -300 -300 -300 -300 -300 -300 -300 -300 -300 -300 -300 -300 -300 -300 -300 -300 -300 -300 -300 -300 -213 -160 -83 -64 0 18 58 35 39 6 23 -28 -66 -136 -115 -119 -90 -49 19 24 14 17 34 98 152 242 274 312 263 255 242 253 243 207 130 43 -31 -48 -49 -119 -198 -285 -300 -300 -300 -300 -300 -300 -300 -300 -300 -300 -300 -252 -172 -75 36 122 120 107 108 102 113 171 239 309 340 382 371 307 271 278 247 249 355 418 429 477 461 460 484 551 632 658 712 738 712 681 705 676 658 683 656 614 520
-300 -300 -300 -300 -300 -300 -300 -300 -300 -300 -300 -300 -300 -300 -300 -300 -300 -300 -300 -300 -300 -300 -300 -300 -300 -300 -300 -300 -300 -300 -300 -300 -300 -300 -300 -300 -300 -300 -300 -300 -300 -300 -300 -300 -300 -300 -300 -300 -300 -300 -214 -152 -42 133 236 265 331 431 530 522 556 574 608 610 652 677 599 584 593 494 429 451 532 607 608 645 689 689 545 391 309 313 266 244 221 240 210 243 240 204 176 228 230 147 79 -52 -170 -226 -300 -300 -300 -300 -300 -300 -300 -300 -300 -300 -300 -300 -300 -300 -300 -300 -300 -300 -300 -300 -300 -300 -300 -300 -300 -300 -300 -300 -300 -300 -300 -300 -300 -300 -300 -300 -300 -300 -300 -300 -300 -300 -300 -300 -300 -300 -300 -300 -300 -300 -300 -300 -300 -300 -300 -300 -300 -300 -300 -300 -300 -300 -265 -175 -121 -90 -77 -21 -3 53 82 55 33 27 62 6 -73 -105 -135 -121 -87 -8 83 56 23 36 80 162 194 229 251 228 213 245 210 166 180 146 49 -9 -63 -79 -157 -227 -291 -300 -300 -300 -300 -300 -300 -300 -300 -300 -300 -300 -269 -223 -75 59 118 101 78 104 54 59 83 134 173 263 277 261 239 207 187 209 273 340 458 450 467 470 531 543 585 646 683 721 712 727 703 717 698 738 751 696 598 544
-300 -300 -300 -300 -300 -300 -300 -300 -300 -300 -300 -300 -300 -300 -300 -300 -300 -300 -300 -300 -300 -300 -300 -300 -300 -300 -300 -300 -300 -300 -300 -300 -300 -300 -300 -300 -300 -300 -300 -300 -300 -300 -300 -300 -300 -300 -300 -300 -300 -264 -194 -111 3 160 251 278 381 458 503 475 486 524 602 620 616 673 589 531 506 388 330 355 442 497 547 607 674 689 616 489 393 319 275 277 266 288 283 268 253 259 213 244 272 156 71 -64 -193 -270 -300 -300 -300 -300 -300 -300 -300 -300 -300 -300 -300 -300 -300 -300 -300 -300 -300 -300 -300 -300 -300 -300 -300 -300 -300 -300 -300 -300 -300 -300 -300 -300 -300 -300 -300 -300 -300 -300 -300 -300 -300 -300 -300 -300 -300 -300 -300 -300 -300 -300 -300 -300 -300 -300 -300 -300 -300 -300 -300 -300 -300 -300 -207 -118 -128 -131 -117 -30 28 100 104 74 89 120 154 140 30 -43 -101 -124 -71 3 98 82 34 34 60 119 134 87 116 167 171 193 120 71 84 82 28 16 -35 -81 -173 -214 -273 -300 -300 -300 -300 -300 -300 -300 -300 -300 -300 -300 -300 -269 -131 -29 26 12 26 60 34 39 35 67 94 159 192 201 230 251 228 228 290 372 488 523 522 484 555 589 646 646 647 668 645 661 653 686 698 699 700 623 527 473
-300 -300 -300 -300 -300 -300 -300 -300 -300 -300 -300 -300 -300 -300 -300 -300 -300 -300 -300 -300 -300 -300 -300 -300 -300 -300 -300 -300 -300 -300 -300 -300 -300 -300 -300 -300 -300 -300 -300 -300 -300 -300 -300 -300 -300 -300 -300 -300 -300 -245 -124 -54 71 153 209 250 352 429 439 435 430 488 517 585 613 622 528 460 407 276 194 224 305 387 479 537 610 640 628 566 466 367 313 322 345 317 303 265 222 229 267 261 220 130 62 -62 -179 -256 -300 -300 -300 -300 -300 -300 -300 -300 -300 -300 -300 -300 -300 -300 -300 -300 -300 -300 -300 -300 -300 -300 -300 -300 -300 -300 -300 -300 -300 -300 -300 -300 -300 -300 -300 -300 -300 -300 -300 -300 -300 -300 -300 -300 -300 -300 -300 -300 -300 -300 -300 -300 -300 -300 -300 -300 -300 -300 -300 -300 -300 -267 -183 -122 -82 -80 -31 6 86 137 188 196 189 248 265 248 143 74 16 -55 -59 -36 -8 7 -2 5 16 25 15 -28 17 76 105 106 31 13 1 15 -33 -26 -46 -126 -189 -254 -300 -300 -300 -300 -300 -300 -300 -300 -300 -300 -300 -300 -300 -278 -199 -67 -19 -8 -47 -67 -46 -4 19 35 70 92 170 214 234 249 241 259 324 442 523 548 531 578 612 650 660 679 682 671 610 605 587 617 601 612 616 575 513 443
-300 -300 -300 -300 -300 -300 -300 -300 -300 -300 -300 -300 -300 -300 -300 -300 -300 -300 -300 -300 -300 -300 -300 -300 -300 -300 -300 -300 -300 -300 -300 -300 -300 -300 -300 -300 -300 -300 -300 -300 -300 -300 -300 -300 -300 -300 -300 -300 -300 -167 -68 -2 141 172 186 217 312 412 384 396 431 448 435 495 556 552 496 441 342 249 142 150 207 303 368 452 486 565 587 573 513 430 344 343 321 323 325 316 219 225 249 246 191 148 87 3 -139 -224 -300 -300 -300 -300 -300 -300 -300 -300 -300 -300 -300 -300 -300 -300 -300 -300 -300 -300 -300 -300 -300 -300 -300 -300 -300 -300 -300 -300 -300 -300 -300 -300 -300 -300 -300 -300 -300 -300 -300 -300 -300 -300 -300 -300 -300 -300 -300 -300 -300 -300 -300 -300 -300 -300 -300 -300 -300 -300 -300 -300 -300 -247 -149 -130 -98 -49 22 28 95 171 261 310 304 373 400 357 294 208 108 69 -10 -85 -70 -31 -15 -74 -98 -45 -35 -83 -30 42 34 -1 -20 -46 -16 -34 -90 -89 -76 -174 -229 -300 -300 -300 -300 -300 -300 -300 -300 -300 -300 -300 -300 -300 -300 -255 -163 -109 -68 -54 -121 -177 -129 -17 43 30 34 56 187 246 270 256 299 321 411 500 578 600 602 645 661 659 706 731 731 672 626 591 596 571 564 587 567 570 498 407
-300 -300 -300 -300 -300 -300 -300 -300 -300 -300 -300 -300 -300 -300 -300 -300 -300 -300 -300 -300 -300 -300 -300 -300 -300 -300 -300 -300 -300 -300 -300 -300 -300 -300 -300 -300 -300 -300 -300 -300 -300 -300 -300 -300 -300 -300 -300 -300 -264 -87 -7 58 207 272 250 244 290 379 339 311 332 322 373 430 477 476 436 404 318 257 158 122 148 225 286 359 409 491 554 567 544 433 360 342 299 306 333 350 261 256 279 292 239 192 122 50 -70 -153 -292 -300 -300 -300 -300 -300 -300 -300 -300 -300 -300 -300 -300 -300 -300 -300 -300 -300 -300 -300 -300 -300 -300 -300 -300 -300 -300 -300 -300 -300 -300 -300 -300 -300 -300 -300 -300 -300 -300 -300 -300 -300 -300 -300 -300 -300 -300 -300 -300 -300 -300 -300 -300 -300 -300 -300 -300 -300 -300 -300 -300 -241 -124 -92 -60 -14 0 29 110 209 295 355 392 483 501 472 365 229 144 109 11 -102 -96 -89 -46 -84 -124 -88 -96 -79 -39 -27 -3 -29 -62 -62 -6 -35 -90 -79 -129 -243 -294 -300 -300 -300 -300 -300 -300 -300 -300 -300 -300 -300 -300 -300 -300 -206 -122 -130 -163 -175 -190 -187 -104 -38 14 29 30 34 106 210 300 352 408 401 430 504 600 608 607 658 711 717 704 719 699 678 656 629 598 562 576 582 557 523 478 399
-300 -300 -300 -300 -300 -300 -300 -300 -300 -300 -300 -300 -300 -300 -300 -300 -300 -300 -300 -300 -300 -300 -300 -300 -300 -300 -300 -300 -300 -300 -300 -300 -300 -300 -300 -300 -300 -300 -300 -300 -300 -300 -300 -300 -300 -300 -300 -296 -211 -62 55 168 257 322 295 289 318 345 303 260 259 253 298 334 398 405 374 356 270 236 150 60 74 121 192 283 360 402 462 500 514 450 398 350 324 331 397 392 359 324 323 337 295 232 158 58 -23 -151 -294 -300 -300 -300 -300 -300 -300 -300 -300 -300 -300 -300 -300 -300 -300 -300 -300 -300 -300 -300 -300 -300 -300 -300 -300 -300 -300 -300 -300 -300 -300 -300 -300 -300 -300 -300 -300 -300 -300 -300 -300 -300 -300 -300 -300 -300 -300 -300 -300 -300 -300 -300 -300 -300 -300 -300 -300 -300 -300 -300 -300 -242 -157 -102 -37 18 60 99 180 267 337 440 521 606 628 584 423 302 175 115 10 -84 -85 -80 -50 -89 -114 -131 -114 -96 -114 -103 -90 -114 -75 -90 -60 -77 -109 -138 -182 -237 -281 -300 -300 -300 -300 -300 -300 -300 -300 -300 -300 -300 -300 -300 -240 -189 -123 -174 -269 -262 -273 -186 -127 -47 -9 20 47 62 117 190 280 370 471 476 472 495 545 597 591 649 698 668 686 754 707 672 579 566 536 511 489 478 495 500 458 403
-300 -300 -300 -300 -300 -300 -300 -300 -300 -300 -300 -300 -300 -300 -300 -300 -300 -300 -300 -300 -300 -300 -300 -300 -300 -300 -300 -300 -300 -300 -300 -300 -300 -300 -300 -300 -300 -300 -300 -300 -300 -300 -300 -300 -300 -300 -295 -271 -188 -46 86 209 291 306 305 342 347 319 278 241 234 246 238 271 344 325 296 290 242 196 172 111 56 66 150 212 287 368 433 456 468 443 382 335 356 404 445 391 355 389 375 377 324 284 187 72 -25 -172 -290 -300 -300 -300 -300 -300 -300 -300 -300 -300 -300 -300 -300 -300 -300 -300 -300 -300 -300 -300 -300 -300 -300 -300 -300 -300 -300 -300 -300 -300 -300 -300 -300 -300 -300 -300 -300 -300 -300 -300 -300 -300 -300 -300 -300 -300 -300 -300 -300 -300 -300 -300 -300 -300 -300 -300 -300 -300 -300 -300 -263 -206 -181 -84 -29 20 106 180 258 332 423 561 630 638 647 599 494 379 257 175 89 29 -20 -2 -22 -41 -81 -148 -162 -169 -191 -227 -200 -139 -91 -140 -143 -150 -156 -222 -228 -270 -294 -300 -300 -300 -300 -300 -300 -300 -300 -300 -300 -300 -300 -300 -253 -237 -257 -300 -300 -296 -300 -264 -206 -133 -60 9 52 129 142 168 230 378 485 544 537 472 480 544 578 672 677 658 648 663 688 640 554 493 449 405 388 388 389 418 406 364
-300 -300 -300 -300 -300 -300 -300 -300 -300 -300 -300 -300 -300 -300 -300 -300 -300 -300 -300 -300 -300 -300 -300 -300 -300 -300 -300 -300 -300 -300 -300 -300 -300 -300 -300 -300 -300 -300 -300 -300 -300 -300 -300 -300 -300 -300 -278 -238 -158 -43 51 154 250 312 296 327 321 311 338 344 309 240 249 275 291 294 278 245 253 229 154 119 61 71 163 220 308 388 421 439 449 452 416 390 421 454 449 439 406 391 386 370 331 312 218 135 49 -90 -258 -300 -300 -300 -300 -300 -300 -300 -300 -300 -300 -300 -300 -300 -300 -300 -300 -300 -300 -300 -300 -300 -300 -300 -300 -300 -300 -300 -300 -300 -300 -300 -300 -300 -300 -300 -300 -300 -300 -300 -300 -300 -300 -300 -300 -300 -300 -300 -300 -300 -300 -246 -215 -210 -206 -300 -300 -300 -300 -241 -169 -85 -101 -75 -9 27 55 161 261 379 466 578 665 616 595 543 479 383 284 220 173 128 48 30 6 -4 -89 -186 -226 -266 -290 -279 -237 -149 -99 -155 -179 -234 -235 -277 -300 -300 -300 -300 -300 -300 -300 -300 -300 -300 -300 -300 -300 -300 -300 -300 -300 -300 -300 -300 -300 -300 -300 -292 -224 -153 -100 -93 -71 34 77 123 197 336 448 543 523 461 519 590 631 677 692 673 596 544 583 540 513 459 447 392 358 315 272 291 280 240
-300 -300 -300 -300 -300 -300 -300 -300 -300 -300 -300 -300 -300 -300 -300 -300 -300 -300 -300 -300 -300 -300 -300 -300 -300 -300 -300 -300 -300 -300 -300 -300 -300 -300 -300 -300 -300 -300 -300 -300 -300 -300 -300 -300 -300 -300 -263 -234 -161 -31 23 98 242 296 331 322 287 307 338 392 349 284 250 293 283 256 248 252 245 218 192 167 104 108 166 248 342 363 402 391 439 455 465 491 498 465 439 437 422 449 456 353 325 332 209 143 88 -60 -234 -300 -300 -300 -300 -300 -300 -300 -300 -300 -300 -300 -300 -300 -300 -300 -300 -300 -300 -300 -300 -300 -300 -300 -300 -300 -300 -300 -300 -300 -300 -300 -300 -300 -300 -300 -300 -300 -300 -300 -300 -300 -300 -300 -300 -300 -300 -300 -300 -300 -300 -230 -176 -125 -182 -244 -300 -300 -276 -203 -107 -24 26 -2 22 58 78 142 299 406 489 555 619 629 573 543 506 426 360 304 290 230 148 84 94 53 -37 -133 -218 -269 -300 -300 -260 -158 -118 -128 -188 -227 -255 -300 -300 -300 -300 -300 -300 -300 -300 -300 -300 -300 -300 -300 -300 -300 -300 -300 -300 -300 -300 -300 -300 -300 -300 -300 -267 -204 -156 -167 -155 -94 -19 56 144 270 410 513 499 488 541 631 703 727 697 620 532 459 465 455 423 423 400 329 273 222 137 121 144 124
-300 -300 -300 -300 -300 -300 -300 -300 -300 -300 -300 -300 -300 -300 -300 -300 -300 -300 -300 -300 -300 -300 -300 -300 -300 -300 -300 -300 -300 -300 -300 -300 -300 -300 -300 -300 -300 -300 -300 -300 -300 -300 -300 -300 -300 -300 -296 -201 -119 3 64 99 205 313 340 304 286 299 340 335 315 301 290 284 223 203 242 231 187 181 172 145 112 67 117 257 350 334 353 375 423 460 525 584 564 474 435 458 513 529 492 426 393 375 269 146 124 13 -156 -268 -300 -300 -300 -300 -300 -300 -300 -300 -300 -300 -300 -300 -300 -300 -300 -300 -300 -300 -300 -300 -300 -300 -300 -300 -300 -300 -300 -300 -300 -300 -300 -300 -300 -300 -300 -300 -300 -300 -300 -300 -300 -300 -300 -300 -300 -300 -300 -300 -300 -298 -185 -124 -141 -190 -230 -235 -239 -192 -69 33 87 105 108 122 156 201 343 452 517 533 572 600 605 559 514 474 422 371 301 259 198 191 113 85 85 -49 -161 -206 -245 -248 -218 -140 -184 -192 -182 -223 -264 -300 -300 -300 -300 -300 -300 -300 -298 -300 -300 -300 -300 -300 -300 -300 -300 -300 -300 -300 -300 -300 -300 -300 -300 -300 -245 -215 -185 -221 -226 -201 -80 35 111 216 324 391 453 455 500 618 683 673 653 577 536 463 427 376 331 307 250 184 137 51 2 -23 -19 -46
-283 -300 -300 -300 -300 -300 -300 -300 -300 -300 -300 -300 -300 -300 -300 -300 -300 -300 -300 -300 -300 -300 -300 -300 -300 -300 -300 -300 -300 -300 -300 -300 -300 -300 -300 -300 -300 -300 -300 -300 -300 -300 -300 -300 -300 -300 -300 -260 -132 -5 33 79 121 189 248 231 197 202 241 316 311 275 305 287 273 205 236 190 127 145 166 100 41 60 128 289 404 404 446 449 457 478 553 620 570 470 472 522 611 620 541 495 436 390 286 202 189 68 -71 -221 -300 -300 -300 -300 -300 -300 -300 -300 -300 -300 -300 -300 -300 -300 -300 -300 -300 -300 -300 -300 -300 -300 -300 -300 -300 -300 -300 -300 -300 -300 -300 -300 -300 -300 -300 -300 -300 -300 -300 -300 -300 -300 -300 -300 -300 -300 -300 -300 -300 -300 -239 -177 -168 -215 -208 -151 -131 -126 -39 79 120 151 190 198 244 302 414 484 557 551 584 563 575 617 587 533 466 409 365 326 285 234 151 174 113 -24 -90 -108 -138 -193 -198 -139 -136 -210 -209 -225 -262 -300 -300 -294 -237 -201 -227 -213 -232 -300 -300 -300 -300 -300 -300 -300 -300 -300 -300 -300 -300 -300 -300 -300 -300 -300 -268 -224 -203 -269 -288 -289 -182 -63 -1 95 232 340 353 380 469 565 630 687 691 605 539 482 436 337 240 173 134 53 -46 -120 -107 -116 -113 -182
-252 -300 -300 -300 -300 -300 -300 -300 -300 -300 -300 -300 -300 -300 -300 -300 -300 -300 -300 -300 -300 -300 -300 -300 -300 -300 -300 -300 -300 -300 -300 -300 -300 -300 -300 -300 -300 -300 -300 -300 -300 -300 -300 -300 -300 -300 -300 -289 -157 -66 -16 11 73 122 151 149 151 143 178 269 306 300 310 317 316 264 288 208 94 104 122 61 47 94 181 326 433 476 512 504 515 541 580 651 599 535 521 573 601 643 578 541 465 377 318 223 219 138 -6 -200 -300 -300 -300 -300 -300 -300 -300 -300 -300 -300 -300 -300 -300 -300 -300 -300 -300 -300 -300 -300 -300 -300 -300 -300 -300 -300 -300 -300 -300 -300 -300 -300 -300 -300 -300 -300 -300 -300 -300 -300 -300 -300 -300 -300 -300 -300 -300 -300 -300 -300 -265 -224 -206 -236 -168 -116 -49 -27 11 107 179 218 252 283 339 405 439 479 518 536 535 539 572 606 635 564 538 463 425 372 344 306 253 208 121 59 -39 -62 -86 -135 -127 -82 -130 -194 -196 -181 -264 -268 -231 -178 -134 -127 -173 -143 -161 -222 -300 -300 -300 -300 -300 -300 -300 -300 -300 -300 -300 -300 -300 -300 -300 -300 -300 -263 -237 -266 -295 -297 -200 -131 -70 20 118 239 277 319 420 523 625 686 679 632 592 530 434 333 158 58 -28 -76 -182 -226 -220 -209 -254 -286
-300 -300 -300 -300 -300 -300 -300 -300 -300 -300 -300 -300 -300 -300 -300 -300 -300 -300 -300 -300 -300 -300 -300 -300 -300 -300 -300 -300 -300 -300 -300 -300 -300 -300 -300 -300 -300 -300 -300 -300 -300 -300 -300 -300 -300 -300 -300 -300 -161 -119 -82 -13 52 40 90 105 103 122 147 182 273 357 369 346 318 320 294 256 185 175 84 82 155 182 226 318 467 508 489 488 522 624 647 660 675 617 575 573 557 611 579 512 391 319 287 230 222 147 6 -159 -255 -300 -300 -300 -300 -300 -300 -300 -300 -300 -300 -300 -300 -300 -300 -300 -300 -300 -300 -300 -300 -300 -300 -300 -300 -300 -300 -300 -300 -300 -300 -300 -300 -300 -300 -300 -300 -300 -300 -300 -300 -300 -300 -300 -300 -300 -300 -300 -300 -300 -284 -279 -277 -224 -130 -96 -49 -17 35 149 270 318 315 358 433 480 452 441 461 471 438 465 539 585 606 616 600 544 480 464 431 380 288 180 137 90 1 -87 -104 -90 -119 -107 -128 -146 -118 -122 -180 -184 -171 -148 -172 -172 -192 -148 -138 -146 -212 -300 -300 -300 -300 -300 -300 -300 -300 -300 -300 -300 -300 -300 -300 -300 -300 -300 -300 -300 -267 -249 -233 -122 -46 -26 48 171 269 328 427 559 641 635 630 628 557 487 389 257 144 47 -68 -119 -232 -286 -282 -300 -300 -300
-295 -300 -300 -300 -300 -300 -300 -300 -300 -300 -300 -300 -300 -291 -256 -270 -292 -300 -300 -300 -300 -300 -300 -300 -300 -300 -300 -300 -300 -300 -300 -300 -300 -300 -300 -300 -300 -300 -300 -300 -300 -300 -300 -300 -300 -300 -300 -300 -198 -179 -119 -84 -77 -52 -17 -3 38 62 85 163 249 339 341 334 380 422 350 299 275 233 172 173 204 262 304 392 506 512 508 542 546 601 670 660 671 619 627 636 585 587 532 432 377 337 303 213 163 60 -63 -182 -275 -300 -300 -300 -300 -300 -300 -300 -300 -300 -300 -300 -300 -300 -300 -300 -300 -300 -300 -300 -300 -300 -300 -300 -300 -300 -300 -300 -300 -300 -300 -300 -300 -300 -300 -300 -300 -300 -300 -300 -300 -300 -300 -300 -300 -300 -300 -300 -300 -300 -300 -300 -300 -241 -141 -122 -86 -75 -23 63 230 332 404 484 558 552 491 476 472 476 451 464 561 621 616 605 601 556 522 494 437 393 300 221 159 57 -16 -91 -120 -136 -180 -170 -191 -186 -148 -109 -145 -168 -175 -173 -203 -246 -224 -157 -117 -101 -176 -236 -299 -300 -300 -300 -300 -300 -300 -300 -300 -300 -300 -300 -300 -300 -300 -293 -300 -294 -289 -232 -167 -94 -49 -7 59 169 274 329 382 471 510 524 481 510 493 380 270 154 121 3 -83 -125 -219 -292 -279 -300 -300 -300
-284 -300 -300 -300 -300 -300 -300 -300 -300 -300 -300 -300 -300 -300 -252 -222 -293 -300 -300 -300 -300 -300 -300 -300 -300 -300 -300 -300 -300 -300 -300 -300 -300 -300 -300 -300 -300 -300 -300 -300 -300 -300 -300 -300 -300 -300 -300 -300 -254 -189 -178 -178 -205 -181 -144 -76 -17 13 65 146 197 311 343 370 435 453 440 387 391 334 247 215 256 338 387 439 502 585 567 574 617 626 664 710 708 721 679 646 618 579 493 387 376 382 349 279 154 9 -103 -231 -263 -300 -300 -300 -300 -300 -300 -300 -300 -300 -300 -300 -300 -300 -300 -300 -300 -300 -300 -300 -300 -300 -300 -300 -300 -300 -300 -300 -300 -300 -300 -300 -300 -300 -300 -300 -300 -300 -300 -300 -300 -300 -300 -300 -300 -300 -300 -300 -300 -300 -300 -300 -300 -245 -166 -122 -99 -87 -88 -9 121 270 382 512 580 553 520 516 519 518 514 530 565 570 601 596 613 558 560 538 476 412 365 226 134 52 -53 -138 -118 -168 -250 -293 -284 -246 -223 -163 -180 -183 -210 -271 -292 -300 -261 -203 -130 -104 -156 -198 -266 -300 -300 -300 -300 -300 -300 -300 -300 -300 -300 -300 -300 -300 -300 -300 -300 -280 -245 -205 -110 -44 -21 22 64 175 250 344 350 339 404 399 338 353 374 282 158 65 28 -25 -62 -115 -212 -296 -277 -300 -300 -300
-300 -300 -300 -300 -300 -300 -300 -300 -300 -300 -300 -300 -300 -300 -288 -249 -300 -300 -300 -300 -300 -300 -300 -300 -300 -300 -300 -300 -300 -300 -300 -300 -300 -300 -300 -300 -300 -300 -300 -300 -300 -300 -300 -300 -300 -300 -300 -300 -300 -249 -227 -229 -259 -217 -145 -51 -42 -39 -8 94 127 201 294 353 419 485 510 473 433 349 301 307 360 389 447 497 555 644 643 634 678 724 716 740 800 811 742 687 650 534 490 442 427 423 402 310 192 43 -102 -221 -279 -300 -300 -300 -300 -300 -300 -300 -300 -300 -300 -300 -300 -300 -300 -300 -300 -300 -300 -300 -300 -300 -300 -300 -300 -300 -300 -300 -300 -300 -300 -300 -300 -300 -300 -300 -300 -300 -300 -300 -300 -300 -300 -300 -300 -300 -300 -300 -269 -265 -300 -300 -300 -219 -106 -31 -88 -81 -61 -5 66 184 324 481 518 520 521 526 558 575 555 564 536 543 584 589 624 613 579 518 454 429 386 226 86 -5 -98 -137 -127 -186 -273 -300 -300 -277 -267 -270 -227 -176 -194 -263 -279 -300 -300 -251 -167 -114 -141 -164 -236 -300 -300 -300 -300 -300 -300 -300 -300 -300 -300 -300 -300 -300 -300 -300 -293 -284 -255 -219 -122 -47 -15 -5 -9 55 175 286 262 288 337 285 268 283 246 212 153 66 -12 -34 -42 -108 -216 -300 -300 -300 -300 -300
-265 -300 -300 -300 -300 -300 -300 -300 -300 -300 -300 -300 -300 -300 -283 -286 -299 -300 -300 -300 -300 -300 -300 -300 -300 -300 -300 -300 -300 -300 -300 -300 -300 -300 -300 -300 -300 -300 -300 -300 -300 -300 -300 -300 -300 -300 -300 -300 -290 -277 -265 -256 -300 -247 -184 -116 -122 -90 -65 -11 75 139 242 301 405 492 485 490 448 384 336 387 440 512 581 623 679 674 675 704 748 784 798 813 863 820 790 724 708 596 513 494 446 402 350 322 185 41 -138 -204 -265 -300 -300 -300 -300 -300 -300 -300 -300 -300 -300 -300 -300 -300 -300 -300 -300 -300 -300 -300 -300 -300 -300 -300 -300 -300 -300 -300 -300 -300 -300 -300 -300 -300 -300 -300 -300 -300 -300 -300 -300 -300 -300 -300 -300 -300 -300 -284 -235 -206 -265 -300 -248 -156 -49 -9 -40 -70 -78 -41 -34 69 189 359 457 518 511 522 560 537 572 622 592 568 612 623 643 643 589 470 428 373 319 221 92 -12 -115 -150 -197 -194 -265 -300 -300 -300 -279 -259 -204 -156 -206 -229 -265 -300 -300 -300 -251 -195 -213 -231 -279 -300 -300 -300 -300 -300 -300 -300 -300 -300 -300 -300 -300 -300 -300 -300 -300 -265 -235 -203 -143 -106 -92 -103 -116 -44 87 203 213 215 220 238 232 225 204 151 93 11 -104 -110 -89 -179 -265 -300 -300 -300 -300 -300
-222 -300 -300 -300 -300 -300 -300 -300 -300 -300 -300 -300 -300 -300 -284 -294 -300 -292 -285 -300 -300 -300 -300 -300 -300 -300 -300 -300 -300 -300 -300 -300 -300 -300 -300 -300 -300 -300 -300 -300 -300 -300 -300 -300 -300 -300 -300 -300 -282 -279 -267 -295 -286 -270 -220 -199 -205 -151 -144 -87 -20 64 163 230 369 439 460 481 471 387 383 471 545 632 732 784 797 748 715 740 820 839 862 874 888 848 809 791 767 683 582 522 471 373 300 266 182 45 -117 -174 -235 -300 -300 -300 -300 -300 -300 -300 -300 -300 -300 -300 -300 -300 -300 -300 -300 -300 -300 -300 -300 -300 -300 -300 -300 -300 -300 -300 -300 -300 -300 -300 -300 -300 -300 -300 -300 -300 -300 -300 -300 -300 -300 -300 -300 -300 -300 -245 -215 -218 -236 -271 -222 -99 -3 37 -2 -32 -81 -98 -62 -31 71 231 381 471 514 524 526 536 548 622 629 607 679 676 664 644 548 469 375 312 221 166 51 -41 -106 -202 -213 -236 -300 -300 -300 -300 -256 -246 -165 -133 -189 -215 -244 -289 -300 -300 -260 -262 -232 -265 -285 -300 -300 -300 -300 -300 -300 -300 -300 -300 -300 -300 -300 -300 -300 -300 -300 -268 -230 -188 -169 -191 -206 -184 -182 -124 21 109 115 93 103 151 162 183 179 105 22 -66 -148 -190 -178 -185 -278 -300 -300 -300 -300 -300
-229 -300 -300 -300 -300 -300 -300 -300 -300 -300 -300 -300 -300 -300 -300 -300 -274 -300 -293 -286 -295 -300 -300 -300 -300 -300 -300 -300 -300 -300 -300 -300 -300 -300 -300 -300 -300 -300 -300 -300 -300 -300 -300 -300 -300 -300 -300 -300 -300 -300 -298 -283 -248 -277 -277 -287 -277 -207 -202 -161 -104 -3 130 207 365 474 509 475 473 415 448 554 627 708 824 855 853 798 765 790 870 919 920 909 928 899 886 891 876 809 706 599 496 424 350 245 159 27 -66 -102 -186 -274 -300 -300 -300 -300 -300 -300 -300 -300 -300 -300 -300 -300 -300 -300 -300 -300 -300 -300 -300 -300 -300 -300 -300 -300 -300 -300 -300 -300 -300 -300 -300 -300 -300 -300 -300 -300 -300 -300 -300 -300 -300 -300 -300 -255 -255 -240 -193 -225 -243 -218 -176 -77 21 64 35 0 -98 -154 -89 -40 60 215 336 432 529 584 559 544 549 587 570 592 663 690 690 667 535 422 302 271 145 66 15 -53 -134 -193 -216 -284 -300 -300 -279 -285 -268 -219 -158 -177 -180 -164 -199 -273 -284 -300 -277 -275 -251 -282 -288 -300 -300 -300 -300 -300 -300 -300 -300 -300 -300 -300 -300 -300 -300 -300 -300 -280 -246 -203 -212 -247 -245 -237 -161 -68 -48 -10 37 35 17 53 121 159 126 101 15 -116 -175 -224 -241 -209 -300 -300 -300 -300 -300 -300
-226 -300 -300 -300 -300 -300 -300 -300 -300 -300 -300 -300 -300 -300 -300 -300 -270 -295 -300 -297 -290 -300 -300 -300 -300 -300 -300 -300 -300 -300 -300 -300 -300 -300 -300 -300 -300 -300 -300 -300 -300 -300 -300 -300 -300 -300 -300 -300 -300 -300 -300 -300 -300 -300 -300 -300 -300 -286 -248 -182 -116 -13 140 217 371 460 499 487 498 503 543 641 687 778 856 897 899 884 892 915 954 972 994 1024 1053 1005 945 953 931 921 813 711 606 521 403 282 184 89 48 -30 -97 -213 -271 -300 -300 -300 -300 -300 -300 -300 -300 -300 -300 -300 -300 -300 -300 -300 -300 -300 -300 -300 -300 -300 -300 -300 -300 -300 -300 -300 -300 -300 -300 -300 -300 -300 -300 -300 -300 -300 -300 -300 -300 -300 -267 -244 -271 -237 -197 -241 -219 -186 -184 -82 28 16 19 -3 -69 -101 -61 -33 39 207 293 356 502 573 547 537 513 559 569 599 585 658 693 666 520 369 277 205 85 3 -46 -38 -113 -180 -281 -300 -300 -300 -276 -261 -300 -268 -241 -254 -281 -215 -256 -276 -276 -265 -288 -263 -227 -237 -223 -260 -300 -300 -300 -300 -300 -300 -300 -300 -300 -300 -300 -300 -300 -300 -300 -300 -283 -218 -220 -279 -243 -189 -130 -82 -85 -108 -46 -5 -51 10 71 118 109 65 -24 -141 -233 -295 -300 -300 -300 -300 -300 -300 -300 -300
-211 -280 -300 -300 -300 -300 -300 -300 -300 -300 -300 -300 -300 -267 -236 -245 -261 -300 -275 -252 -265 -300 -300 -300 -300 -300 -300 -300 -300 -300 -300 -300 -300 -300 -300 -300 -300 -300 -300 -300 -300 -300 -300 -300 -300 -300 -300 -300 -300 -300 -300 -300 -300 -300 -300 -300 -300 -300 -276 -207 -154 -9 168 273 384 426 458 488 538 605 616 678 737 818 865 864 900 965 1004 1026 1048 1048 1039 1114 1133 1068 999 993 994 1019 934 802 716 591 470 338 206 110 78 -6 -58 -160 -210 -265 -300 -300 -300 -300 -300 -300 -300 -300 -300 -300 -300 -300 -300 -300 -300 -300 -300 -300 -300 -300 -300 -300 -300 -300 -300 -300 -300 -300 -300 -300 -300 -300 -300 -300 -300 -300 -300 -300 -300 -300 -277 -254 -277 -261 -224 -200 -201 -153 -137 -105 -20 -23 -41 -55 -37 -52 -42 8 53 195 290 379 504 551 544 534 500 537 549 555 576 631 678 655 479 344 227 132 36 -11 -44 -41 -85 -223 -300 -300 -300 -300 -271 -272 -300 -300 -300 -300 -300 -275 -286 -278 -246 -242 -267 -261 -236 -239 -210 -268 -300 -300 -300 -300 -300 -300 -300 -300 -300 -300 -300 -300 -300 -300 -300 -300 -300 -270 -231 -241 -190 -181 -153 -144 -127 -138 -73 -24 -21 -13 58 74 74 22 -84 -228 -300 -300 -300 -300 -300 -300 -300 -300 -300 -300
-239 -269 -300 -300 -300 -300 -300 -300 -300 -300 -300 -300 -259 -262 -251 -215 -255 -252 -262 -291 -300 -300 -300 -300 -300 -300 -300 -300 -300 -300 -300 -300 -300 -300 -300 -300 -300 -300 -300 -300 -300 -300 -300 -300 -300 -300 -300 -300 -300 -300 -300 -300 -300 -300 -300 -300 -300 -300 -250 -178 -143 4 151 264 353 436 508 538 544 632 673 686 745 811 847 905 934 1003 997 1031 1074 1113 1086 1165 1224 1177 1105 1055 1049 1034 1017 906 818 662 535 349 217 140 66 -27 -45 -54 -94 -153 -240 -300 -300 -300 -300 -300 -300 -300 -300 -300 -300 -300 -300 -300 -300 -300 -300 -300 -300 -300 -300 -300 -300 -300 -300 -300 -300 -300 -300 -300 -300 -300 -300 -300 -300 -300 -300 -300 -300 -296 -212 -184 -219 -273 -300 -249 -203 -191 -160 -106 -96 -104 -85 -96 -47 -10 -33 2 105 246 356 408 474 502 493 481 449 450 477 517 582 607 635 620 490 314 154 118 70 52 11 -61 -165 -236 -300 -300 -300 -300 -300 -300 -300 -277 -300 -300 -300 -291 -300 -286 -255 -211 -229 -247 -266 -296 -299 -300 -300 -300 -300 -300 -300 -300 -300 -300 -300 -300 -300 -300 -300 -300 -300 -300 -300 -300 -238 -238 -206 -191 -179 -181 -197 -162 -82 -46 -3 2 29 0 -14 -95 -220 -300 -300 -300 -300 -300 -300 -300 -300 -300 -300 -300
-204 -198 -247 -283 -300 -300 -300 -300 -300 -300 -286 -199 -194 -187 -219 -178 -223 -247 -271 -300 -300 -300 -300 -300 -300 -300 -300 -300 -300 -300 -300 -300 -300 -300 -300 -300 -300 -300 -300 -300 -300 -300 -300 -300 -300 -300 -300 -300 -300 -300 -300 -300 -300 -300 -300 -300 -300 -300 -222 -161 -108 -22 124 226 341 436 484 516 540 592 647 668 751 827 854 910 969 990 974 996 1108 1146 1149 1157 1185 1185 1102 1051 1065 1033 1001 930 839 697 548 375 229 121 31 18 0 -2 -4 -66 -152 -257 -300 -300 -300 -300 -300 -300 -300 -300 -300 -300 -300 -300 -300 -300 -300 -300 -300 -300 -300 -300 -300 -300 -300 -300 -300 -300 -300 -300 -300 -300 -300 -300 -300 -300 -300 -300 -300 -288 -211 -167 -215 -283 -300 -300 -267 -216 -217 -186 -196 -179 -156 -115 -117 -77 -60 -15 72 211 329 416 436 454 472 464 435 378 449 505 572 562 591 583 477 319 194 167 147 119 5 -83 -179 -231 -300 -300 -300 -289 -274 -262 -206 -191 -273 -290 -281 -225 -229 -210 -241 -213 -204 -225 -263 -300 -300 -300 -300 -300 -300 -300 -300 -300 -300 -300 -300 -300 -300 -300 -300 -300 -300 -300 -300 -300 -294 -246 -223 -219 -224 -246 -231 -177 -89 -68 -43 -40 -3 -23 -71 -207 -300 -300 -300 -300 -300 -300 -300 -300 -300 -300 -300 -300
-171 -146 -169 -199 -238 -265 -241 -237 -274 -298 -206 -138 -134 -151 -166 -176 -225 -226 -300 -300 -300 -300 -300 -300 -300 -300 -300 -300 -300 -300 -300 -300 -300 -300 -300 -300 -300 -300 -300 -300 -300 -300 -300 -300 -300 -300 -300 -300 -300 -300 -300 -300 -300 -300 -300 -270 -266 -263 -188 -139 -99 -43 101 220 304 415 497 502 520 536 591 665 765 791 807 876 969 973 954 991 1118 1183 1189 1150 1130 1124 1094 1039 1017 1000 945 894 844 730 586 411 267 168 58 48 74 63 62 20 -28 -74 -175 -234 -300 -300 -300 -300 -300 -300 -300 -300 -300 -300 -300 -300 -300 -300 -300 -300 -300 -300 -300 -300 -300 -300 -300 -300 -300 -300 -300 -300 -300 -300 -300 -300 -300 -300 -300 -294 -229 -179 -187 -254 -300 -300 -300 -279 -274 -276 -296 -300 -274 -217 -194 -177 -113 -47 71 193 300 381 418 425 415 423 420 417 479 529 566 572 568 551 484 379 273 218 208 162 57 -22 -110 -207 -300 -300 -271 -220 -174 -152 -119 -94 -157 -177 -164 -128 -112 -130 -165 -169 -175 -218 -300 -300 -300 -300 -300 -300 -300 -300 -300 -300 -300 -300 -300 -300 -300 -300 -300 -300 -300 -300 -300 -300 -300 -300 -236 -225 -258 -300 -300 -209 -92 -89 -92 -61 -3 -41 -146 -291 -300 -300 -300 -300 -300 -300 -300 -300 -300 -300 -300 -300
-102 -112 -118 -85 -80 -137 -159 -143 -176 -161 -80 -69 -61 -96 -101 -117 -181 -268 -300 -294 -300 -300 -300 -300 -300 -300 -300 -300 -300 -300 -300 -300 -300 -300 -300 -300 -300 -300 -300 -300 -300 -300 -300 -300 -300 -300 -300 -300 -300 -300 -300 -300 -300 -300 -300 -292 -238 -202 -126 -103 -68 -13 101 243 340 392 478 514 588 579 608 696 745 789 786 814 877 881 963 1053 1163 1211 1257 1197 1140 1089 1044 1017 951 967 949 927 844 712 570 453 327 221 139 89 98 122 111 89 46 67 -7 -81 -214 -209 -227 -262 -300 -300 -300 -300 -300 -300 -300 -300 -300 -300 -300 -300 -300 -300 -300 -300 -300 -300 -300 -300 -300 -300 -300 -300 -300 -300 -300 -300 -300 -300 -300 -273 -245 -208 -175 -234 -300 -300 -300 -300 -300 -300 -300 -300 -250 -195 -174 -162 -74 -22 80 147 262 322 363 393 399 457 453 491 511 562 579 573 599 584 543 479 364 319 305 250 140 34 -128 -217 -239 -267 -230 -170 -107 -61 -57 -49 -59 -61 -41 -45 -55 -117 -129 -177 -210 -295 -300 -300 -300 -300 -300 -300 -300 -300 -300 -300 -300 -300 -300 -300 -300 -300 -300 -300 -300 -300 -300 -300 -300 -300 -296 -299 -300 -300 -300 -276 -188 -139 -167 -130 -107 -172 -300 -300 -300 -300 -300 -300 -300 -300 -300 -300 -300 -300 -300 -300
9 -30 -18 11 42 8 -2 -13 -81 -58 -37 -44 -37 -31 -47 -85 -187 -287 -299 -283 -298 -300 -300 -300 -300 -300 -300 -300 -300 -300 -300 -300 -300 -300 -300 -300 -300 -300 -300 -300 -300 -300 -300 -300 -300 -300 -300 -300 -300 -300 -300 -300 -300 -300 -300 -300 -250 -184 -87 -56 -42 17 152 291 427 488 562 612 646 641 624 673 715 753 762 813 831 911 1001 1108 1168 1200 1243 1192 1113 1097 1039 999 967 958 911 903 824 741 592 479 379 263 190 127 138 132 133 150 164 170 100 0 -93 -102 -106 -175 -291 -300 -300 -300 -300 -300 -300 -300 -300 -300 -300 -300 -300 -300 -300 -300 -300 -300 -300 -300 -300 -300 -300 -300 -300 -300 -300 -300 -300 -300 -300 -259 -229 -202 -174 -247 -282 -300 -300 -300 -300 -300 -300 -300 -258 -191 -109 -75 -33 53 114 107 213 302 314 325 407 443 484 541 562 625 639 663 636 649 610 513 443 352 289 272 180 67 -99 -153 -132 -177 -170 -66 4 31 34 21 14 14 1 39 -21 -60 -115 -150 -226 -300 -300 -300 -300 -300 -300 -300 -300 -300 -300 -300 -300 -300 -300 -300 -300 -300 -300 -300 -300 -300 -300 -300 -300 -300 -300 -300 -300 -300 -300 -297 -221 -162 -230 -251 -260 -300 -300 -300 -300 -300 -300 -300 -300 -300 -300 -300 -300 -300 -300 -300
158 121 119 117 156 148 117 114 43 -24 -22 -10 -51 -61 -55 -118 -231 -300 -300 -300 -299 -300 -300 -300 -300 -300 -300 -300 -300 -300 -300 -300 -300 -300 -300 -300 -300 -300 -300 -300 -300 -300 -300 -300 -300 -300 -300 -300 -300 -300 -300 -300 -300 -300 -300 -300 -268 -193 -98 -55 -15 63 208 357 469 559 623 642 632 631 649 653 650 667 729 818 876 960 1073 1152 1147 1114 1126 1113 1079 1093 1065 1045 1012 934 867 861 793 745 634 527 409 316 265 215 204 210 208 192 227 210 134 64 14 -15 -20 -70 -207 -290 -300 -300 -300 -300 -300 -300 -300 -300 -300 -300 -300 -300 -300 -300 -300 -300 -300 -300 -300 -300 -300 -300 -300 -300 -300 -300 -300 -300 -300 -297 -268 -240 -191 -214 -295 -300 -295 -300 -300 -300 -300 -300 -256 -189 -72 25 54 85 120 108 174 222 235 291 374 414 478 544 565 658 689 693 676 679 593 516 459 390 320 295 196 97 6 -28 -23 -47 -62 36 157 177 193 172 92 26 24 78 32 -23 -67 -79 -170 -300 -300 -300 -300 -300 -300 -300 -300 -300 -300 -300 -300 -300 -300 -300 -300 -300 -300 -300 -300 -300 -300 -300 -300 -300 -300 -300 -300 -300 -300 -300 -222 -219 -300 -300 -300 -300 -300 -300 -300 -300 -300 -300 -300 -300 -300 -300 -300 -300 -300 -300
265 231 247 224 203 179 173 150 88 30 -7 -18 -41 -69 -73 -143 -240 -300 -300 -300 -300 -300 -300 -300 -300 -300 -300 -300 -300 -300 -300 -300 -300 -300 -300 -300 -300 -300 -300 -300 -300 -300 -300 -300 -300 -300 -300 -300 -300 -300 -300 -300 -300 -300 -300 -300 -297 -184 -109 -57 40 71 158 350 506 636 656 657 608 623 652 640 635 667 778 855 934 1001 1098 1134 1084 1076 1027 1016 964 1004 1008 987 948 877 782 762 707 683 655 572 441 368 312 274 242 225 198 247 288 246 219 189 156 89 40 -60 -130 -207 -290 -300 -300 -300 -300 -300 -300 -300 -300 -300 -300 -300 -300 -300 -300 -300 -300 -300 -300 -300 -300 -300 -300 -300 -300 -300 -300 -300 -300 -289 -278 -249 -215 -218 -269 -247 -300 -300 -300 -300 -300 -300 -300 -221 -39 67 90 83 95 128 159 176 218 282 397 477 556 616 620 640 682 697 685 695 623 522 446 374 303 259 219 136 89 82 37 51 82 150 216 217 259 219 119 48 1 40 26 -7 -12 -88 -196 -300 -300 -300 -300 -300 -300 -300 -300 -300 -300 -300 -300 -300 -300 -300 -300 -300 -300 -300 -300 -300 -300 -300 -300 -300 -300 -300 -300 -300 -300 -300 -300 -300 -300 -300 -300 -300 -300 -300 -300 -300 -300 -300 -300 -300 -300 -300 -300 -300 -300 -300
312 312 315 279 220 206 197 159 109 32 -7 -60 -77 -124 -107 -156 -290 -300 -300 -300 -300 -300 -300 -300 -300 -300 -300 -300 -300 -300 -300 -300 -300 -300 -300 -300 -300 -300 -300 -300 -300 -300 -300 -300 -300 -300 -300 -300 -300 -300 -300 -300 -300 -300 -300 -300 -265 -174 -133 -80 -14 62 150 344 502 613 612 600 600 639 659 674 654 693 792 843 918 1020 1104 1077 1016 1034 985 891 837 869 883 867 807 787 767 720 630 582 565 544 496 394 368 346 324 254 198 258 313 287 268 309 261 146 51 -70 -101 -185 -289 -300 -300 -300 -300 -300 -300 -300 -300 -300 -300 -300 -300 -300 -300 -300 -300 -300 -300 -300 -300 -300 -300 -300 -300 -300 -300 -300 -300 -300 -298 -247 -224 -205 -281 -300 -300 -300 -300 -300 -300 -300 -300 -232 -71 28 78 33 79 117 166 146 190 314 415 534 630 672 690 667 653 694 749 760 697 582 467 402 366 327 286 272 234 210 141 140 149 201 235 286 253 221 138 90 16 -8 5 -14 -55 -140 -270 -300 -300 -300 -300 -300 -300 -300 -300 -300 -300 -300 -300 -300 -300 -300 -300 -300 -300 -300 -300 -300 -300 -300 -300 -300 -300 -300 -300 -300 -300 -300 -300 -300 -300 -300 -300 -300 -300 -300 -300 -300 -300 -300 -300 -300 -300 -300 -300 -300 -300 -300
403 410 388 340 243 211 217 197 137 -4 -57 -111 -119 -163 -176 -193 -300 -300 -300 -300 -282 -287 -300 -300 -300 -300 -300 -300 -300 -300 -300 -300 -300 -300 -300 -300 -300 -300 -300 -300 -300 -300 -300 -300 -300 -300 -300 -300 -300 -300 -300 -300 -300 -300 -300 -300 -300 -221 -187 -132 -63 38 129 309 458 505 495 531 558 591 635 638 605 637 749 838 920 1019 1068 1023 952 925 890 816 744 755 757 687 613 621 667 636 568 508 502 475 445 363 384 406 372 339 293 344 352 289 273 324 291 216 110 -16 -93 -170 -240 -300 -300 -300 -300 -300 -300 -300 -300 -300 -300 -300 -300 -300 -300 -300 -300 -300 -300 -300 -300 -300 -300 -300 -300 -300 -300 -300 -300 -271 -259 -230 -221 -235 -294 -300 -300 -300 -300 -300 -300 -300 -300 -231 -89 -24 57 50 96 132 136 134 197 267 380 527 648 689 687 689 697 767 784 768 694 614 516 484 430 369 380 403 381 355 288 292 247 248 240 326 304 260 154 69 -24 -90 -77 -64 -116 -219 -300 -300 -300 -300 -300 -300 -300 -300 -300 -300 -300 -300 -300 -300 -300 -300 -300 -300 -300 -300 -300 -300 -300 -300 -300 -300 -300 -300 -300 -300 -300 -300 -300 -300 -300 -300 -300 -300 -300 -300 -300 -300 -300 -300 -300 -300 -300 -300 -300 -300 -300 -300
430 440 389 361 334 284 238 202 92 -11 -118 -184 -236 -220 -232 -261 -300 -300 -300 -277 -256 -255 -300 -300 -300 -300 -300 -300 -300 -300 -300 -300 -300 -300 -300 -300 -300 -300 -300 -300 -300 -300 -300 -300 -300 -285 -282 -300 -300 -275 -278 -263 -300 -292 -284 -300 -300 -248 -225 -192 -62 1 132 265 395 423 473 509 565 593 613 609 576 601 698 795 883 976 1016 977 911 867 793 704 636 585 558 514 458 503 581 575 555 479 450 418 370 356 386 459 457 409 357 342 341 299 296 293 300 255 148 66 -24 -65 -233 -300 -300 -300 -300 -300 -300 -300 -300 -300 -300 -300 -300 -300 -300 -300 -300 -300 -300 -300 -300 -300 -300 -300 -300 -300 -300 -300 -300 -300 -300 -259 -217 -249 -300 -300 -300 -300 -300 -300 -300 -300 -300 -289 -161 -88 22 44 72 158 160 123 213 286 362 494 637 710 723 701 721 754 784 729 675 616 538 486 453 449 469 498 454 427 363 379 384 320 308 329 326 274 177 69 -26 -129 -103 -113 -165 -290 -300 -300 -300 -300 -300 -300 -300 -300 -300 -300 -300 -300 -300 -300 -300 -300 -300 -300 -300 -300 -300 -300 -300 -300 -300 -300 -300 -300 -300 -300 -300 -300 -300 -300 -300 -300 -300 -300 -300 -300 -300 -300 -300 -300 -300 -300 -300 -300 -300 -300 -300 -300
509 491 464 435 423 345 223 131 60 -1 -98 -133 -216 -252 -226 -268 -300 -300 -277 -282 -300 -300 -300 -300 -300 -300 -300 -300 -300 -300 -300 -300 -300 -300 -300 -300 -300 -300 -300 -300 -300 -300 -300 -300 -298 -243 -202 -221 -201 -193 -192 -248 -276 -234 -249 -300 -299 -270 -224 -199 -80 -27 63 215 280 333 427 485 505 548 558 539 547 565 607 690 808 905 904 897 846 795 720 613 512 471 395 357 326 346 376 460 531 490 403 358 346 360 396 458 473 435 380 328 323 339 355 350 332 281 233 158 59 -38 -197 -300 -300 -300 -300 -300 -300 -300 -300 -300 -300 -300 -300 -300 -300 -300 -300 -300 -300 -300 -300 -300 -300 -300 -300 -300 -300 -300 -300 -300 -300 -300 -300 -300 -300 -300 -300 -300 -300 -300 -300 -300 -300 -300 -228 -125 18 58 104 148 172 175 206 305 394 489 610 691 713 684 645 653 689 643 624 586 537 478 464 475 500 500 469 458 447 467 467 419 346 325 349 315 202 64 -33 -106 -114 -88 -150 -300 -300 -300 -300 -300 -300 -300 -300 -300 -300 -300 -300 -300 -300 -300 -300 -300 -300 -300 -300 -300 -300 -300 -300 -300 -300 -300 -300 -300 -300 -300 -300 -300 -300 -300 -300 -300 -300 -300 -300 -300 -300 -300 -300 -300 -300 -300 -300 -300 -300 -300 -300 -300
593 583 558 484 468 386 287 186 136 75 -33 -103 -126 -199 -253 -293 -300 -283 -256 -278 -251 -268 -293 -300 -300 -300 -300 -300 -300 -300 -300 -300 -300 -300 -300 -300 -300 -300 -300 -300 -300 -300 -300 -300 -238 -211 -191 -231 -190 -190 -196 -202 -203 -196 -216 -282 -271 -280 -258 -235 -117 -77 -11 132 188 245 356 432 434 471 520 502 514 504 527 625 658 715 739 733 704 669 626 564 459 427 322 258 220 223 210 317 367 376 303 302 336 382 382 411 392 412 417 412 387 407 465 438 371 358 319 197 100 -11 -98 -217 -300 -300 -300 -300 -300 -300 -300 -300 -300 -300 -300 -300 -300 -300 -300 -300 -300 -300 -300 -300 -300 -300 -300 -300 -300 -300 -300 -300 -300 -300 -300 -300 -300 -300 -300 -300 -300 -300 -300 -300 -300 -300 -242 -90 43 63 71 89 113 132 140 237 386 491 599 647 651 652 604 616 618 598 599 592 570 518 491 463 481 469 479 482 494 484 471 447 422 359 346 293 193 75 -21 -79 -81 -104 -185 -297 -300 -300 -300 -300 -300 -300 -300 -300 -300 -300 -300 -300 -300 -300 -300 -300 -300 -300 -300 -300 -300 -300 -300 -300 -300 -300 -300 -300 -300 -300 -300 -300 -300 -300 -300 -300 -300 -300 -300 -300 -300 -300 -300 -300 -300 -300 -300 -300 -300 -300 -300 -300
658 631 611 553 498 473 381 265 200 128 56 2 -60 -149 -231 -245 -278 -225 -240 -226 -253 -228 -280 -300 -300 -300 -300 -300 -300 -300 -300 -300 -300 -300 -300 -300 -300 -300 -300 -300 -300 -300 -300 -272 -255 -254 -251 -279 -235 -252 -237 -209 -208 -161 -170 -255 -253 -265 -300 -284 -143 -111 -67 -20 71 152 227 316 408 415 481 468 474 438 498 539 575 585 606 615 602 571 510 439 395 370 256 179 120 99 75 184 234 260 213 237 309 362 386 402 397 383 417 420 467 501 525 483 412 374 374 258 127 -8 -77 -147 -266 -300 -300 -300 -300 -300 -300 -300 -300 -300 -300 -300 -300 -300 -300 -300 -300 -300 -300 -300 -300 -300 -300 -300 -300 -300 -300 -300 -300 -300 -300 -300 -300 -300 -300 -300 -300 -300 -300 -300 -300 -300 -289 -128 -24 23 7 28 36 59 103 200 340 467 553 591 644 631 583 546 531 555 570 587 600 571 532 542 548 518 518 506 536 515 487 469 434 403 342 271 202 108 71 -1 -58 -135 -176 -293 -300 -300 -300 -300 -300 -300 -300 -300 -300 -300 -300 -300 -300 -300 -300 -300 -300 -300 -300 -300 -300 -300 -300 -300 -300 -300 -300 -300 -300 -300 -300 -300 -300 -300 -300 -300 -300 -300 -300 -300 -300 -300 -300 -300 -300 -300 -300 -300 -300 -300 -300 -300
680 643 646 584 562 578 492 357 288 228 133 44 -39 -147 -270 -255 -210 -209 -233 -213 -286 -296 -297 -243 -200 -270 -300 -300 -300 -300 -300 -300 -300 -300 -300 -300 -300 -300 -300 -300 -300 -300 -300 -300 -296 -300 -300 -300 -264 -300 -300 -281 -233 -213 -216 -272 -300 -300 -300 -300 -212 -151 -139 -118 -20 62 128 209 329 375 430 416 428 422 462 474 501 492 479 484 471 448 363 317 315 309 219 140 77 17 31 118 189 192 161 263 336 382 350 386 453 432 386 386 480 552 503 447 394 376 376 279 176 41 -35 -103 -208 -300 -300 -300 -300 -300 -300 -300 -300 -300 -300 -300 -300 -300 -300 -300 -300 -300 -300 -300 -300 -300 -300 -300 -300 -300 -300 -300 -300 -300 -300 -300 -300 -300 -300 -300 -300 -300 -300 -300 -300 -300 -300 -246 -115 -42 -52 -66 -18 8 55 123 233 363 488 565 590 587 562 531 533 537 569 578 594 616 629 626 632 630 589 519 525 505 484 456 397 365 288 183 133 130 129 69 -36 -178 -218 -260 -300 -300 -300 -300 -300 -300 -300 -300 -300 -300 -300 -300 -300 -300 -300 -300 -300 -300 -300 -300 -300 -300 -300 -300 -300 -300 -300 -300 -300 -300 -300 -300 -300 -300 -300 -300 -300 -300 -300 -300 -300 -300 -300 -300 -300 -300 -300 -300 -300 -300 -300 -300
625 595 618 641 600 581 479 367 346 273 171 82 -43 -157 -300 -300 -254 -215 -246 -241 -269 -276 -262 -219 -163 -202 -244 -300 -300 -300 -300 -300 -300 -300 -300 -300 -300 -300 -300 -300 -300 -300 -300 -300 -300 -300 -300 -300 -300 -300 -300 -300 -276 -253 -267 -290 -300 -300 -300 -300 -278 -195 -157 -142 -94 -55 3 56 157 231 323 344 377 366 381 403 402 364 360 347 330 282 202 188 207 231 199 103 59 42 31 77 125 168 194 227 289 334 366 388 401 413 357 406 461 528 495 425 364 354 373 331 224 99 -5 -49 -112 -197 -300 -300 -300 -300 -300 -300 -300 -300 -300 -300 -300 -300 -300 -300 -300 -300 -300 -300 -300 -300 -300 -300 -300 -300 -300 -300 -300 -300 -300 -300 -300 -300 -300 -300 -300 -300 -300 -300 -300 -300 -300 -300 -181 -111 -98 -130 -124 -102 -40 19 117 239 356 473 502 519 554 554 558 551 577 617 662 710 731 697 666 672 630 600 591 583 547 482 378 302 188 107 43 39 67 31 -74 -191 -242 -300 -300 -300 -300 -300 -300 -300 -300 -300 -300 -300 -300 -300 -300 -300 -300 -300 -300 -300 -300 -300 -300 -300 -300 -300 -300 -300 -300 -300 -300 -300 -300 -300 -300 -300 -300 -300 -300 -300 -300 -300 -300 -300 -300 -300 -300 -300 -300 -300 -300 -300 -300 -300
590 599 596 620 636 564 476 377 360 300 178 80 -65 -176 -300 -300 -279 -250 -263 -300 -300 -261 -251 -210 -172 -165 -216 -261 -272 -273 -292 -300 -288 -231 -204 -263 -293 -300 -300 -298 -292 -300 -300 -300 -300 -300 -300 -300 -300 -300 -300 -300 -300 -300 -300 -300 -288 -300 -300 -300 -287 -236 -209 -180 -174 -164 -119 -54 42 128 197 314 330 355 341 319 287 241 210 183 164 139 97 103 146 133 167 126 35 5 7 36 111 165 195 227 277 352 379 409 392 404 393 411 486 479 447 432 384 381 348 308 221 155 49 -21 -22 -76 -150 -265 -300 -300 -300 -300 -300 -300 -300 -300 -300 -300 -300 -300 -300 -300 -300 -300 -300 -300 -300 -300 -300 -300 -300 -300 -300 -300 -300 -300 -300 -300 -300 -300 -300 -300 -300 -300 -300 -300 -300 -300 -284 -183 -171 -149 -190 -185 -141 -69 42 164 280 353 426 456 517 540 535 559 603 653 688 754 776 767 719 673 652 616 563 566 529 430 285 147 94 30 -32 14 52 -9 -102 -181 -276 -300 -300 -300 -300 -300 -300 -300 -300 -300 -300 -300 -300 -300 -300 -300 -300 -300 -300 -300 -300 -300 -300 -300 -300 -300 -300 -300 -300 -300 -300 -300 -300 -300 -300 -300 -300 -300 -300 -300 -300 -300 -300 -300 -300 -300 -300 -300 -300 -300 -300 -300 -300 -300
515 525 514 516 550 503 479 401 346 296 178 57 -29 -120 -194 -239 -230 -206 -230 -300 -288 -213 -219 -230 -218 -198 -205 -246 -258 -258 -261 -278 -279 -245 -157 -152 -153 -268 -299 -267 -300 -300 -300 -300 -300 -300 -300 -300 -300 -300 -300 -300 -300 -300 -300 -293 -289 -300 -300 -300 -300 -242 -252 -250 -240 -242 -223 -149 -50 7 50 186 275 321 292 262 226 190 79 19 12 -2 -16 8 75 65 115 105 16 -42 -42 -12 76 102 141 239 279 330 352 400 408 386 373 439 491 470 459 468 458 392 323 252 150 117 76 51 66 58 -1 -151 -289 -300 -300 -300 -300 -300 -300 -300 -300 -300 -300 -300 -300 -300 -300 -300 -300 -300 -300 -300 -300 -300 -300 -300 -300 -300 -300 -300 -300 -300 -300 -300 -300 -300 -300 -300 -300 -300 -300 -300 -300 -300 -300 -278 -248 -195 -130 -63 15 91 206 261 348 396 454 475 485 511 557 658 696 722 760 762 716 631 584 529 428 395 371 261 171 58 0 -3 -29 16 39 -9 -79 -145 -211 -272 -300 -300 -300 -300 -300 -300 -300 -300 -300 -300 -300 -300 -300 -300 -300 -300 -300 -300 -300 -300 -300 -300 -300 -300 -300 -300 -300 -300 -300 -300 -300 -300 -300 -300 -300 -300 -300 -300 -300 -300 -300 -300 -300 -300 -300 -300 -300 -300 -300 -300 -300 -300
450 473 512 519 539 508 447 403 343 271 183 120 56 -61 -150 -220 -207 -211 -203 -269 -262 -240 -284 -300 -300 -267 -251 -278 -274 -268 -225 -243 -218 -206 -121 -100 -125 -210 -239 -300 -300 -300 -300 -300 -300 -300 -300 -300 -300 -300 -300 -300 -300 -300 -300 -300 -300 -300 -299 -300 -300 -300 -273 -270 -255 -237 -233 -186 -102 -55 -37 69 152 247 206 154 94 99 27 -57 -56 -79 -77 -80 -35 -28 23 38 -18 -84 -62 -40 0 9 94 160 217 286 294 336 321 322 316 393 438 460 485 469 478 429 346 257 197 157 126 136 117 152 111 -39 -172 -300 -300 -300 -300 -300 -300 -300 -300 -300 -300 -300 -300 -300 -300 -300 -300 -300 -300 -300 -300 -300 -300 -300 -300 -300 -300 -300 -300 -300 -300 -300 -300 -300 -300 -300 -300 -300 -300 -300 -300 -300 -300 -300 -298 -213 -151 -84 0 73 149 140 206 237 306 342 386 450 555 636 636 656 715 699 626 549 510 460 349 280 226 116 44 19 -16 -34 -68 -26 -8 -34 -90 -144 -183 -239 -300 -300 -300 -300 -300 -300 -300 -300 -300 -300 -300 -300 -300 -300 -300 -300 -300 -300 -300 -300 -300 -300 -300 -300 -300 -300 -300 -300 -300 -300 -300 -300 -300 -300 -300 -300 -300 -300 -300 -300 -300 -300 -300 -300 -300 -300 -300 -300 -300 -300 -300 -300
416 481 482 519 524 495 440 403 306 242 171 114 68 26 -109 -218 -231 -228 -229 -267 -252 -235 -300 -300 -300 -298 -283 -271 -270 -263 -202 -171 -164 -166 -111 -95 -146 -181 -276 -300 -300 -300 -300 -300 -300 -300 -300 -300 -300 -300 -300 -300 -300 -300 -300 -300 -300 -300 -300 -300 -300 -300 -300 -300 -267 -218 -237 -192 -121 -101 -96 -4 53 149 146 43 12 5 -6 -66 -94 -111 -98 -125 -108 -108 -67 -75 -98 -142 -134 -111 -93 -54 14 107 154 188 183 216 227 261 327 364 421 476 501 526 509 465 387 348 307 222 183 175 226 253 160 48 -87 -232 -300 -300 -300 -300 -300 -300 -300 -300 -300 -300 -300 -300 -300 -300 -300 -300 -300 -300 -300 -300 -300 -300 -300 -300 -300 -300 -300 -300 -300 -300 -300 -300 -300 -300 -300 -300 -300 -300 -300 -300 -300 -300 -300 -241 -147 -92 -83 20 39 0 39 106 188 237 312 400 543 626 607 608 646 591 550 457 442 371 292 170 51 -25 -49 1 -51 -61 -72 -49 -49 -27 -108 -167 -193 -211 -275 -300 -300 -300 -300 -300 -300 -300 -300 -300 -300 -300 -300 -300 -300 -300 -300 -300 -300 -300 -300 -300 -300 -300 -300 -300 -300 -300 -300 -300 -300 -300 -300 -300 -300 -300 -300 -300 -300 -300 -300 -300 -300 -300 -300 -300 -300 -300 -300 -300 -300 -300
317 404 411 414 413 411 376 341 255 171 112 93 54 43 -52 -182 -231 -300 -300 -282 -255 -212 -238 -285 -276 -275 -244 -231 -300 -298 -232 -153 -133 -121 -129 -125 -158 -267 -300 -300 -300 -300 -300 -300 -300 -300 -300 -300 -300 -300 -300 -300 -300 -300 -300 -300 -300 -300 -300 -300 -300 -300 -300 -300 -300 -300 -296 -228 -148 -126 -85 0 73 94 79 9 -86 -124 -94 -84 -83 -120 -124 -197 -176 -175 -196 -191 -151 -183 -227 -216 -180 -114 -43 67 114 127 83 115 194 241 331 379 378 423 499 522 547 527 470 447 411 298 248 267 316 258 170 104 -8 -161 -243 -300 -300 -300 -300 -300 -300 -300 -300 -300 -300 -300 -300 -300 -300 -300 -300 -300 -300 -300 -300 -300 -300 -300 -300 -300 -300 -300 -300 -300 -300 -300 -300 -300 -300 -300 -300 -300 -300 -300 -300 -300 -300 -263 -169 -149 -155 -68 -13 -60 -55 11 113 198 265 365 514 611 610 548 561 526 481 398 319 244 195 30 -104 -147 -107 -56 -106 -112 -85 -67 -86 -84 -167 -209 -217 -209 -258 -300 -300 -300 -300 -300 -300 -300 -300 -300 -300 -300 -300 -300 -300 -300 -300 -300 -300 -300 -300 -300 -300 -300 -300 -300 -300 -300 -300 -300 -300 -300 -300 -300 -300 -300 -300 -300 -300 -300 -300 -300 -300 -300 -300 -300 -300 -300 -300 -300 -300 -300
